# .PCD v.7 - Point Cloud Data file format
FIELDS x y z normal_x normal_y normal_z curvature
SIZE 4 4 4 4 4 4 4
TYPE F F F F F F F
COUNT 1 1 1 1 1 1 1
WIDTH 644
HEIGHT 1
VIEWPOINT 0 0 0 1 0 0 0
POINTS 644
DATA ascii
0.02993829 0.1069624 0.541045 0.3943018 0.3994619 0.8276209 0.013911
0.02966955 0.1088929 0.5402673 0.4029394 0.3947191 0.8257341 0.01303275
0.02941142 0.1108141 0.539486 0.4089241 0.392257 0.8239633 0.01190538
0.02914232 0.1127415 0.538725 0.418511 0.3900686 0.8201799 0.01111991
0.02944826 0.1147774 0.537631 0.4197668 0.3911326 0.8190306 0.01047219
0.02956221 0.1167259 0.5365999 0.4223396 0.4045821 0.8111366 0.01010481
0.02897671 0.1184985 0.5360589 0.4233046 0.4184362 0.8035697 0.01018746
0.02872916 0.1203266 0.5352416 0.4230094 0.4365294 0.7940435 0.009663695
0.02930478 0.1224369 0.5335527 0.4281498 0.455786 0.7803506 0.009877929
0.02898453 0.1242171 0.5325595 0.4289097 0.4714718 0.7705522 0.009901232
0.02832237 0.1258338 0.5319396 0.4273155 0.479445 0.7665076 0.01010255
0.02821727 0.1277068 0.5308565 0.4282853 0.4869545 0.7612143 0.009970957
0.02793268 0.1294927 0.5299356 0.4271253 0.4909945 0.7592684 0.009839852
0.02746627 0.1311887 0.529162 0.4222407 0.4945785 0.7596742 0.009505637
0.02702907 0.1329143 0.5284096 0.4173905 0.4957165 0.7616104 0.009291868
0.02705012 0.134793 0.527079 0.4173599 0.4979183 0.7601895 0.009326818
0.02642662 0.1364242 0.5264465 0.414572 0.5028197 0.758487 0.008958794
0.02593996 0.138104 0.5255957 0.41543 0.5036301 0.7574792 0.008630679
0.02575522 0.1398676 0.5243794 0.4193011 0.5068462 0.7531889 0.008577939
0.02545907 0.1416065 0.5233849 0.4169379 0.5122567 0.7508368 0.008126846
0.02518223 0.1433952 0.5224378 0.4184051 0.5128801 0.749594 0.007869214
0.02523014 0.1452529 0.5211444 0.4254742 0.517758 0.7422253 0.007579793
0.02585047 0.1472263 0.5192462 0.4375233 0.5253469 0.7297835 0.008974966
0.02557774 0.1489704 0.5182619 0.4408129 0.5301298 0.7243247 0.00925193
0.02545769 0.1507454 0.5170328 0.4399308 0.5409779 0.716801 0.009309856
0.0249764 0.1523848 0.5162225 0.4432485 0.535688 0.7187275 0.009853488
0.02466981 0.1540641 0.5151849 0.4464129 0.5338032 0.7181709 0.009692668
0.02395103 0.1556836 0.5144967 0.4432504 0.5375123 0.7173629 0.009274676
0.02363666 0.1573744 0.5134437 0.4438206 0.5354666 0.7185394 0.009116655
0.02331169 0.1590505 0.5123675 0.4434668 0.5327039 0.7208077 0.009094483
0.0230422 0.1607886 0.5113724 0.4365087 0.5355587 0.7229364 0.009349509
0.02251016 0.1624213 0.5104037 0.4305907 0.5347922 0.7270412 0.009958429
0.02220223 0.1641068 0.5093302 0.4294496 0.5377017 0.7255688 0.009506879
0.02227498 0.1658038 0.5079452 0.4292948 0.5422738 0.72225 0.009431509
0.02155557 0.1673865 0.5070992 0.4196917 0.5558965 0.7175221 0.009990725
0.02157841 0.1690378 0.5056405 0.4182346 0.5651785 0.7110929 0.01032402
0.02124935 0.1706714 0.5045142 0.4217074 0.569183 0.7058284 0.0105569
0.02068944 0.1722006 0.5034809 0.4199849 0.5860432 0.6929402 0.01220384
0.02034804 0.1738013 0.502322 0.4183344 0.5911052 0.689631 0.01231896
0.02002493 0.1754181 0.5012049 0.4185583 0.6015434 0.6804076 0.01202711
0.01965587 0.1769538 0.500031 0.4203057 0.6184912 0.6639366 0.01404323
0.01951979 0.1785997 0.4987052 0.4181663 0.6284735 0.6558644 0.01365052
0.01912865 0.1801108 0.4974751 0.4217866 0.6357433 0.6464725 0.01402619
0.01875321 0.181624 0.4962577 -0.4209082 -0.6460462 -0.636758 0.01430931
0.01830175 0.1830372 0.4949653 -0.4282563 -0.656557 -0.6209102 0.01728196
0.01790718 0.1845288 0.4937304 -0.4308856 -0.6624131 -0.6128187 0.01779794
0.01755474 0.1861067 0.4924965 -0.4304935 -0.6537423 -0.6223313 0.01912031
0.01762432 0.1877808 0.4908996 -0.436936 -0.6466406 -0.6252543 0.02040605
0.01802518 0.1891499 0.4885347 -0.4815822 -0.6452664 -0.5930513 0.03970563
0.01757007 0.1904601 0.4871303 -0.5046048 -0.6379131 -0.5817567 0.05646463
0.01669491 0.1923202 0.4869373 0.4648373 0.6216161 0.6304916 0.0404041
0.0176492 0.1932091 0.4838332 -0.5339147 -0.614628 -0.5806612 0.08554231
0.01613797 0.1955803 0.4846554 0.4485315 0.5986918 0.6636171 0.03929858
0.01581833 0.1971508 0.4834487 0.4428222 0.5881603 0.6767391 0.03985421
0.01565184 0.1989147 0.4824708 0.4160875 0.5869462 0.6945252 0.02973271
0.0153211 0.2004579 0.4812363 0.4109713 0.5834945 0.7004547 0.0300577
0.01497484 0.2019758 0.4799741 0.4128279 0.5830127 0.6997637 0.03015961
0.01472033 0.2036131 0.4788559 0.3951999 0.5910816 0.703164 0.02420355
0.01437372 0.2051175 0.4775775 0.3938821 0.5944377 0.7010713 0.02384431
0.01404349 0.2066402 0.4763246 0.3916673 0.6005938 0.6970538 0.02370439
0.01369482 0.2081321 0.475038 0.394312 0.6088722 0.6883261 0.02440167
0.01325266 0.2097731 0.4739522 0.3756378 0.6234545 0.6857118 0.02245024
0.01305332 0.2111706 0.4725355 0.3785153 0.6359869 0.6724931 0.02317624
0.01270784 0.2126312 0.4712344 -0.3674229 -0.6611243 -0.654152 0.02453451
0.01240913 0.2141636 0.4700112 -0.3499092 -0.696867 -0.6260511 0.0205518
0.01175457 0.2155256 0.4689176 -0.3412154 -0.709363 -0.6167465 0.02142966
0.01151584 0.2169129 0.4674305 -0.3403781 -0.7250956 -0.5986477 0.0193905
0.01110878 0.2181981 0.465992 -0.3331093 -0.7353819 -0.5901284 0.0199088
0.0102302 0.2194301 0.4651783 -0.3238665 -0.7388502 -0.5909406 0.02044585
0.01026346 0.220764 0.4631241 -0.3369464 -0.7491615 -0.5702843 0.01942498
0.009865089 0.2220503 0.4617002 -0.332213 -0.7576836 -0.5617385 0.01828091
0.009444002 0.2233452 0.4602608 -0.3356112 -0.7596951 -0.5569817 0.0173351
0.009044439 0.2246497 0.4588439 -0.3349976 -0.7651155 -0.5498863 0.01571121
0.008891149 0.2259663 0.4570027 -0.3383646 -0.7581951 -0.5573593 0.01515603
0.008448242 0.2271831 0.4555095 -0.3418753 -0.7605709 -0.551954 0.01428229
0.008021097 0.228426 0.4540306 -0.3429987 -0.7623181 -0.548838 0.01369548
0.007761405 0.2297292 0.452414 -0.3491088 -0.7585794 -0.5501639 0.01352866
0.007849142 0.2310609 0.4505149 -0.3503823 -0.7606213 -0.5465232 0.01328213
0.007452906 0.2323246 0.4490668 -0.3529165 -0.760133 -0.5455709 0.0130645
0.00705493 0.2335884 0.4476081 -0.3547929 -0.7628711 -0.5405088 0.0138136
0.006655129 0.2348509 0.4461535 -0.3540843 -0.7644607 -0.5387246 0.01409345
0.005733709 0.2360966 0.4451027 -0.3559597 -0.7594163 -0.5445912 0.01493548
0.00530384 0.2373133 0.4435982 -0.358778 -0.7596608 -0.5423965 0.01486025
0.004877632 0.2385126 0.4420874 -0.3579515 -0.7626969 -0.5386691 0.01497031
0.004459668 0.239737 0.4406046 -0.3604651 -0.7669689 -0.5308706 0.01477929
0.004014822 0.2408973 0.4390565 -0.3607934 -0.7672809 -0.5301962 0.01463059
0.003779373 0.2420803 0.4374075 -0.3582409 -0.7692314 -0.5290996 0.0143524
0.003203582 0.2433246 0.4360501 -0.3554882 -0.7734107 -0.5248466 0.01428207
0.002950344 0.2444933 0.4343938 -0.3605404 -0.7722443 -0.5231151 0.01480127
0.002353152 0.2457161 0.4329802 -0.3587313 -0.7705511 -0.5268422 0.01454249
0.001782983 0.2469727 0.4316029 -0.3558663 -0.7738266 -0.5239766 0.01531494
0.001396128 0.2482137 0.4301126 -0.3549329 -0.7762204 -0.5210611 0.01536599
0.001952979 0.2493516 0.4280888 -0.3575298 -0.7763736 -0.5190536 0.01486196
0.0008392377 0.250713 0.42704 -0.3511049 -0.7804185 -0.5173706 0.01528971
0.001803063 0.251783 0.4248169 -0.3602456 -0.7823074 -0.5081518 0.01442119
0.001416603 0.2530033 0.4233348 -0.3575422 -0.7846845 -0.5063929 0.01453908
0.0006159256 0.2542256 0.4220202 -0.3516898 -0.7877045 -0.5058022 0.01474075
0.0002247375 0.255419 0.4205097 -0.3493814 -0.7902013 -0.5035021 0.01494122
-0.0001921758 0.2565632 0.4189712 -0.3435045 -0.7926854 -0.5036414 0.01510078
-0.001147791 0.2577978 0.4176922 -0.3377041 -0.7944172 -0.5048339 0.01516366
-0.001752717 0.2589117 0.416176 -0.3331928 -0.7960835 -0.5052065 0.01499892
-0.002141642 0.2600316 0.4145966 -0.3218122 -0.8000137 -0.5063742 0.01468273
-0.002550432 0.2611091 0.4130031 -0.3139497 -0.8052602 -0.5029828 0.01441112
-0.002955785 0.2621796 0.4114189 -0.3059857 -0.8129802 -0.495415 0.01427729
-0.003212632 0.2632138 0.4097537 -0.2972414 -0.8222179 -0.4853919 0.01420766
-0.003640941 0.264234 0.40814 -0.2918255 -0.8298119 -0.4756576 0.01464435
-0.004065298 0.2652645 0.4065308 -0.2877521 -0.8358863 -0.4674321 0.0144579
-0.004488718 0.2662674 0.4049099 -0.2801104 -0.8435664 -0.4581853 0.01494435
-0.004801322 0.2671742 0.4031588 -0.266244 -0.8571286 -0.4409589 0.01556427
-0.005135667 0.2680831 0.4013807 -0.2529057 -0.8681116 -0.4271077 0.0156415
-0.005391444 0.2689661 0.3994367 -0.2463149 -0.8793381 -0.4075459 0.0155867
-0.005839289 0.2699032 0.3977589 -0.243328 -0.8888112 -0.3883376 0.01435005
-0.006301884 0.2707915 0.3960679 -0.2366237 -0.8977541 -0.3715465 0.01340334
-0.006754705 0.2716958 0.3943957 -0.2305832 -0.9038346 -0.3604363 0.01261879
-0.007290235 0.2725841 0.3928944 -0.2288235 -0.9093381 -0.3474822 0.01141885
-0.007831493 0.2734199 0.3913811 -0.2233699 -0.9126783 -0.3422342 0.01157439
-0.008364546 0.2742379 0.3898631 -0.2173093 -0.9161764 -0.3367454 0.01117079
-0.008984283 0.2749833 0.388499 -0.2132222 -0.9194454 -0.3303883 0.01113679
-0.009439524 0.2757534 0.3867855 -0.2090468 -0.9222236 -0.3252737 0.01128976
-0.009736581 0.2764749 0.3846946 -0.1967041 -0.925588 -0.3234105 0.01230358
-0.01001264 0.2772273 0.3824548 -0.1919785 -0.9260567 -0.3249049 0.01289453
-0.01047315 0.2779831 0.3807305 -0.187477 -0.9246567 -0.3314551 0.01369683
-0.01094008 0.2786855 0.3789796 -0.1807731 -0.9225985 -0.3407829 0.01412771
-0.01140429 0.2794134 0.3772279 -0.1790572 -0.9188471 -0.3516514 0.01422209
-0.01180416 0.2801754 0.3753834 -0.1746352 -0.9158964 -0.3614367 0.01366233
-0.01226272 0.2809052 0.3736452 -0.1703582 -0.9155369 -0.3643766 0.01351723
-0.01272168 0.2816233 0.3718976 -0.1665319 -0.9140961 -0.3697236 0.0135111
-0.01317613 0.2823643 0.3701629 -0.164696 -0.9154018 -0.3673076 0.01336591
-0.01368448 0.2830815 0.3684931 -0.1639089 -0.916482 -0.3649583 0.0134681
-0.0141407 0.2837655 0.3667281 -0.1593687 -0.9174066 -0.364646 0.01333334
-0.01458757 0.2844967 0.3649868 -0.1552893 -0.9190966 -0.3621418 0.01357962
-0.01486695 0.2852104 0.3629977 -0.1508385 -0.9200029 -0.3617217 0.01344936
-0.01531415 0.2859898 0.361289 -0.14573 -0.9215514 -0.3598692 0.01349432
-0.01577188 0.2867361 0.3595704 -0.1359958 -0.9229552 -0.3600817 0.01317617
-0.01622678 0.2874573 0.357832 -0.1301734 -0.9262828 -0.353631 0.01295839
-0.01667836 0.2881866 0.3560986 -0.1250267 -0.929019 -0.3482702 0.01277352
-0.01717804 0.2889234 0.3545208 -0.1166252 -0.9326214 -0.3414907 0.0129229
-0.0176478 0.2896807 0.3529487 -0.1113146 -0.9350684 -0.3365355 0.01300103
-0.01806055 0.2902289 0.3510138 -0.1007379 -0.9405525 -0.3243653 0.02263059
-0.01854284 0.2903504 0.3489883 -0.0698846 -0.9569372 -0.2817574 0.05905516
-0.01899419 0.2908461 0.3472091 0.05963336 0.9639261 0.2594036 0.07012375
-0.01950018 0.2909314 0.3452411 0.03941482 0.9816198 0.1867332 0.1005946
-0.01994387 0.2912225 0.343461 0.02250971 0.9876552 0.155018 0.1152686
-0.02032609 0.2917787 0.3418919 0.02305473 0.9869714 0.1592359 0.1155296
-0.02072327 0.292269 0.3402824 0.02611884 0.9859044 0.1652586 0.1158092
-0.0211754 0.2927209 0.3384962 0.02478759 0.9864056 0.1624489 0.1205716
-0.02164688 0.2931162 0.3366759 0.02810222 0.9858048 0.1655269 0.1244408
-0.02210106 0.2933667 0.3348782 0.02566112 0.9872626 0.1570163 0.1333493
-0.02252303 0.2935875 0.333129 0.01645159 0.9902803 0.1381101 0.1457438
-0.02297457 0.2938132 0.3313686 0.0144631 0.9921368 0.1243195 0.155097
-0.02356848 0.2953315 0.3299239 0.0635113 0.9828953 0.1728678 0.1137654
-0.02405612 0.2956043 0.3281592 0.06419884 0.9849683 0.1603621 0.119186
-0.02449108 0.2957857 0.3263524 0.05728808 0.9866606 0.1523777 0.1271884
-0.02494588 0.2957122 0.3242577 0.04841892 0.986302 0.1576833 0.1414044
-0.02537064 0.2959938 0.322461 0.04179044 0.9876785 0.1508137 0.1411762
-0.02570666 0.2958377 0.3204744 0.016884 0.9896708 0.1423615 0.1551349
-0.02615839 0.296267 0.3186235 0.01516925 0.9891778 0.1459359 0.1506835
-0.02626617 0.2957284 0.3164681 -0.05478617 0.9892126 0.1358564 0.1714835
-0.02692816 0.2967105 0.3149792 -0.004908697 0.9904541 0.1377559 0.1570829
-0.02702187 0.2962036 0.312923 -0.07308812 0.9903679 0.1175998 0.1701753
-0.02740932 0.2963445 0.31104 -0.07918126 0.9894013 0.1217191 0.1688121
-0.0279172 0.2966293 0.3093889 -0.0718016 0.9924783 0.09915373 0.161822
-0.02869762 0.2980728 0.3083423 -0.007558336 0.9970884 0.07587995 0.1398685
-0.02845217 0.2962219 0.305387 -0.1454016 0.9849614 0.09332429 0.158923
-0.02880892 0.2964602 0.3035745 -0.1547047 0.9837308 0.09132467 0.1534245
-0.02917626 0.2966479 0.3018097 -0.1615486 0.9833892 0.08275129 0.1454593
-0.02963655 0.2967853 0.2999219 -0.1561582 0.9837161 0.08897916 0.1411782
-0.02986506 0.2969298 0.2980524 -0.1777236 0.9797629 0.0920818 0.1311298
-0.03024499 0.2972421 0.2962765 -0.1852481 0.9788932 0.08632141 0.123944
-0.03058422 0.2974874 0.2944984 -0.1958485 0.9773621 0.08004271 0.1163475
-0.03092245 0.2977595 0.2927896 -0.2071439 0.9760495 0.06647337 0.108396
-0.03158739 0.2976615 0.2908145 -0.2023944 0.97707 0.0661127 0.1000944
-0.03207924 0.2977485 0.2889869 -0.1933188 0.9789841 0.0649469 0.09550353
-0.03272375 0.2976822 0.2869582 -0.1907325 0.9789198 0.07305683 0.09168025
-0.03319915 0.297758 0.2850306 -0.1836285 0.9794315 0.08363308 0.08856981
-0.03370564 0.2978938 0.2831555 -0.1750568 0.9806148 0.08803242 0.08505543
-0.03390947 0.2984674 0.2816514 -0.1635751 0.9837743 0.07369836 0.08231264
-0.03429877 0.2990664 0.2802602 -0.1413438 0.9885805 0.05225406 0.07907806
-0.03482186 0.2990942 0.278269 -0.1342666 0.9889693 0.06254904 0.07592042
-0.03546459 0.2988284 0.2758634 -0.1427118 0.9851701 0.095253 0.072805
-0.03733712 0.2974685 0.2731824 -0.1947843 0.9606329 0.1981 0.06828845
-0.03779777 0.2977464 0.2713948 -0.1951665 0.9598358 0.2015575 0.06397482
-0.03823989 0.2979828 0.2695895 -0.200017 0.9575207 0.20772 0.06041351
-0.03979481 0.2974139 0.2681969 -0.2389124 0.938026 0.2510544 0.05635786
-0.03978761 0.2980503 0.2662412 -0.2321772 0.9445149 0.2323476 0.05359615
-0.03959235 0.2987779 0.2642419 -0.2189571 0.9525795 0.2113055 0.05126996
-0.04074205 0.298632 0.2627407 -0.2395988 0.9427487 0.231986 0.04765217
-0.04122206 0.2989035 0.2609882 -0.2484047 0.9402878 0.2327101 0.04532229
-0.04170674 0.2991827 0.2592371 -0.2524391 0.9401988 0.2286937 0.04313871
-0.04146631 0.2998167 0.2571566 -0.2347073 0.9504251 0.2039724 0.04107441
-0.04193459 0.3000498 0.2553839 -0.2399768 0.9495944 0.2016975 0.03895602
-0.04120059 0.3008479 0.2532604 -0.2094446 0.9654131 0.1552758 0.03716442
-0.04165107 0.3010517 0.2514753 -0.2140006 0.9651681 0.1505139 0.03427662
-0.04211203 0.3012308 0.2496949 -0.216949 0.9653832 0.1448053 0.03244531
-0.04262642 0.301292 0.2479824 -0.2103757 0.9691902 0.1281113 0.03082198
-0.04432428 0.3009588 0.2465695 -0.2386003 0.9604475 0.143564 0.02928296
-0.04479976 0.3010555 0.2447979 -0.232798 0.9639139 0.1291329 0.02771442
-0.04486572 0.3012097 0.2429136 -0.2114039 0.9719652 0.1029182 0.02611952
-0.0453496 0.3012448 0.2411456 -0.2051001 0.9745473 0.090508 0.02483742
-0.04582356 0.3012011 0.2394018 -0.1980008 0.9776652 0.07047363 0.02403671
-0.04627971 0.3011713 0.2376492 -0.1968164 0.9789738 0.05360639 0.0239455
-0.04711163 0.3009889 0.2359492 -0.1962559 0.9799323 0.03487758 0.02360612
-0.04773551 0.3008156 0.2341924 -0.1976112 0.9801304 0.01715638 0.02370344
-0.04893856 0.300491 0.2324214 -0.1987889 0.9800415 0.001335465 0.02400306
-0.04956863 0.3003038 0.2306083 -0.2020038 0.9792957 -0.01321398 0.02394437
-0.05017544 0.300106 0.2287766 -0.1993035 0.9795002 -0.02928448 0.02370809
-0.05037502 0.299933 0.2269846 -0.1919075 0.980358 -0.04549538 0.02307344
-0.05060342 0.2997368 0.2252173 -0.1897275 0.9798377 -0.0626232 0.02277043
-0.0511979 0.2994281 0.223383 -0.1911913 0.9782866 -0.08000845 0.02327941
-0.0512509 0.2992285 0.2217155 -0.1906544 0.9769256 -0.09626609 0.02350417
-0.05165661 0.2989059 0.219961 -0.1856823 0.9761504 -0.1124841 0.02382104
-0.0520687 0.2985936 0.2182129 -0.1788284 0.9759906 -0.1243502 0.02412493
-0.05248588 0.2982841 0.2164675 -0.1739047 0.9757195 -0.1331491 0.02463101
-0.05276225 0.2979565 0.2148154 -0.1586139 0.9769338 -0.1429755 0.02544441
-0.05319406 0.2976104 0.2130845 -0.1513971 0.9767227 -0.1519598 0.02630031
-0.05363741 0.2972356 0.2113653 -0.1387587 0.9768448 -0.1628502 0.02774734
-0.05407656 0.2968742 0.2096434 -0.1321428 0.9763665 -0.1710167 0.02793376
-0.05451966 0.2965287 0.2079144 -0.1264598 0.9760888 -0.1768013 0.02847828
-0.05488232 0.2961752 0.2062941 -0.1159745 0.9758744 -0.1849842 0.02930622
-0.05536263 0.2957344 0.2045992 -0.1018147 0.9756875 -0.1940822 0.0303512
-0.0560163 0.2951897 0.2025988 -0.1011617 0.97575 -0.194109 0.03132115
-0.05631934 0.2948532 0.2011482 -0.08022456 0.9772162 -0.1965008 0.03179343
-0.05701515 0.2943267 0.1990001 -0.08858953 0.9768871 -0.1945345 0.03145084
-0.05765566 0.293795 0.1969927 -0.08439332 0.9769378 -0.1961391 0.0316512
-0.05806388 0.2933741 0.1952859 -0.08010647 0.9760183 -0.2024136 0.0306498
-0.05834603 0.293044 0.1938034 -0.06993888 0.9749593 -0.2110995 0.02949198
-0.05888735 0.2925505 0.1918732 -0.07137901 0.9741516 -0.2143214 0.02986598
-0.05930711 0.292113 0.1901941 -0.06917401 0.9741903 -0.2148679 0.03042815
-0.05976102 0.2916515 0.1884548 -0.06809742 0.9744734 -0.2139261 0.03050403
-0.06019018 0.291137 0.1867791 -0.06997367 0.9733419 -0.2184249 0.03052963
-0.0606178 0.2906353 0.1850924 -0.071251 0.971654 -0.2254149 0.03079975
-0.06096113 0.290254 0.1835911 -0.07371929 0.9700146 -0.2315972 0.03041887
-0.06136099 0.289773 0.1819809 -0.06990142 0.967526 -0.2429146 0.03044385
-0.06178528 0.2894838 0.1806488 -0.05078419 0.9663479 -0.2521759 0.03001698
-0.06221236 0.2889785 0.1790125 -0.05294806 0.9630868 -0.2639326 0.03058498
-0.0626047 0.288434 0.1772868 -0.0629956 0.9598588 -0.2733181 0.03051422
-0.06302962 0.2879066 0.1756342 -0.06494952 0.9575374 -0.2808984 0.03049006
-0.06348249 0.2872147 0.1737532 -0.07132241 0.9543869 -0.2899291 0.02961387
-0.06398275 0.2864801 0.1717753 -0.0754595 0.9532517 -0.292604 0.02913029
-0.06438356 0.2859586 0.1702086 -0.07313222 0.951555 -0.298655 0.02848994
-0.06480662 0.2854024 0.1685602 -0.0771108 0.9495501 -0.3039879 0.02784047
-0.0652236 0.284812 0.1669239 -0.08851482 0.9476237 -0.3068786 0.02697887
-0.06558978 0.2842997 0.1654453 -0.08650995 0.9459285 -0.3126265 0.02678441
-0.06597202 0.2837343 0.1638859 -0.09024508 0.9444529 -0.3160135 0.02601006
-0.0664286 0.2831792 0.1622763 -0.08184924 0.940272 -0.3304382 0.02429556
-0.06685194 0.2825781 0.1606668 -0.08175141 0.9367607 -0.3402883 0.02310961
-0.06725355 0.2819737 0.1590492 -0.08698427 0.9337147 -0.3472905 0.02200042
-0.06763235 0.2814126 0.1574334 -0.09820406 0.9287011 -0.3575896 0.02062722
-0.0680171 0.280799 0.1558269 -0.1062728 0.9247872 -0.365342 0.0196232
-0.06837533 0.2802009 0.1542333 -0.1200112 0.9187212 -0.3762297 0.01888375
-0.0687789 0.2795521 0.1526181 -0.1222761 0.9172163 -0.3791607 0.01822365
-0.06920124 0.2786544 0.1508647 -0.1458242 0.913604 -0.3795565 0.01874153
-0.0695506 0.2779206 0.1492884 -0.1599027 0.9105206 -0.381292 0.01838976
-0.06991134 0.2771623 0.147723 -0.1677601 0.908298 -0.3832118 0.01814811
-0.07027738 0.2764266 0.1461443 -0.1746941 0.9064018 -0.3846011 0.01819927
-0.07064487 0.2756846 0.1445765 -0.1803235 0.9040203 -0.3875962 0.01822511
-0.0709268 0.2750089 0.1430735 -0.1825553 0.902728 -0.3895585 0.01865293
-0.07128013 0.2742405 0.1415211 -0.1886033 0.8997195 -0.3936161 0.01904394
-0.07171435 0.2733645 0.1399245 -0.1981499 0.8956249 -0.3982372 0.01924757
-0.07207218 0.272574 0.1383762 -0.2025074 0.8936441 -0.4004884 0.01916104
-0.07273676 0.2715263 0.1366756 -0.2208796 0.8872188 -0.4050369 0.01915841
-0.07308947 0.2707305 0.1351477 -0.2281817 0.8834667 -0.4091699 0.01887925
-0.07331697 0.2700203 0.1336971 -0.2305687 0.8785377 -0.4183415 0.01882957
-0.07364196 0.269192 0.1322034 -0.2400654 0.8724906 -0.4255922 0.01879094
-0.07410733 0.2682716 0.1306411 0.252001 -0.866713 0.4304698 0.01816224
-0.07427938 0.2675617 0.1291989 0.2616605 -0.8606626 0.4367994 0.01752285
-0.0750873 0.2663884 0.1275361 0.2709391 -0.8567402 0.4388487 0.01653983
-0.0755919 0.2654196 0.1260001 0.2782962 -0.8525671 0.4423578 0.01581
-0.07574646 0.2646561 0.1245775 0.2864794 -0.8478643 0.4461566 0.01506084
-0.07605742 0.2637547 0.1231156 0.2959454 -0.8434465 0.4483463 0.01453612
-0.07638285 0.2628795 0.1216531 0.3017474 -0.8379824 0.4546804 0.01371649
-0.0767094 0.2620028 0.1201805 0.3071986 -0.8346083 0.4572286 0.01304667
-0.07665718 0.2613441 0.1188137 0.308361 -0.8312322 0.4625654 0.01251187
-0.07734127 0.2601976 0.1172823 0.3178113 -0.8256149 0.4662147 0.01188603
-0.07783938 0.2591615 0.115805 0.3291506 -0.8185397 0.4708 0.01164627
-0.07835306 0.2580971 0.1143454 0.3357319 -0.8125704 0.4764593 0.01179108
-0.07931154 0.256759 0.1128107 0.3424629 -0.8067081 0.4816026 0.01217093
-0.07960779 0.2557659 0.1114238 0.348832 -0.8003329 0.4876306 0.01272036
-0.07989462 0.2547571 0.1100524 0.3532717 -0.7955682 0.4922095 0.01309712
-0.08063807 0.2534629 0.1086131 0.3587511 -0.7906082 0.4962223 0.01365773
-0.08046994 0.2527477 0.1073122 0.3582557 -0.7889308 0.4992405 0.0135317
-0.08120442 0.2514072 0.1059166 0.3689815 -0.7829381 0.50086 0.01392567
-0.08146721 0.2503386 0.1045981 0.3748623 -0.7793585 0.5020745 0.01380592
-0.08132116 0.2497033 0.1032325 -0.3704454 0.7788873 -0.506068 0.01255872
-0.08156946 0.2486317 0.1019223 -0.3786367 0.7698321 -0.5138025 0.01287352
-0.08183637 0.2475796 0.1005934 -0.3810345 0.7669315 -0.5163613 0.01363349
-0.08210534 0.2465267 0.0992625 -0.3833621 0.7647774 -0.517831 0.01433384
-0.08262056 0.2453286 0.09791594 -0.3851067 0.7628642 -0.5193567 0.01537045
-0.08688287 -0.2497611 0.09781452 -0.257953 -0.8613505 -0.437648 0.0142717
-0.08664601 -0.2504714 0.09944705 -0.2661355 -0.8556641 -0.4438592 0.01471899
-0.08621579 -0.251323 0.1009509 -0.2647629 -0.8502956 -0.4548604 0.01527642
-0.085797 -0.2522056 0.1024277 -0.2639991 -0.8485188 -0.458607 0.016116
-0.08552522 -0.2530921 0.1038722 -0.2597325 -0.8497362 -0.4587891 0.0161531
-0.08501334 -0.2540912 0.1052989 -0.251955 -0.8538277 -0.4555184 0.01632832
-0.08462857 -0.2550549 0.1067197 -0.2446073 -0.8593542 -0.4490853 0.01671391
-0.08421658 -0.2559419 0.1081853 -0.2431607 -0.8615589 -0.4456334 0.0164507
-0.08401816 -0.2566616 0.1096817 -0.2470913 -0.8610324 -0.4444876 0.01573732
-0.08337735 -0.2576557 0.111154 -0.2425762 -0.8614576 -0.4461476 0.01563412
-0.08284555 -0.2585688 0.1126557 -0.2411548 -0.8611259 -0.4475562 0.01520939
-0.08279 -0.2592737 0.1140584 -0.2452881 -0.8582206 -0.4508781 0.01459156
-0.08214436 -0.2602853 0.1155752 -0.2470545 -0.8537363 -0.458365 0.01451182
-0.08162142 -0.2612584 0.1170759 -0.245517 -0.853354 -0.4599003 0.01410468
-0.08121631 -0.2621472 0.118546 -0.2460672 -0.8519837 -0.4621415 0.0138153
-0.08057319 -0.2632009 0.1201223 -0.2421045 -0.8529621 -0.4624293 0.01360525
-0.08015163 -0.2640518 0.1216245 -0.2438 -0.8521672 -0.4630038 0.01350622
-0.07971163 -0.2648658 0.1231436 -0.2498572 -0.8508689 -0.4621619 0.01375153
-0.07905339 -0.2659257 0.1247802 -0.2462011 -0.8504836 -0.4648254 0.01387408
-0.07888301 -0.2665476 0.1261371 -0.2504518 -0.8532143 -0.4574924 0.01450192
-0.078224 -0.2675922 0.127765 -0.2450185 -0.8565833 -0.4541265 0.01482828
-0.07782875 -0.2684523 0.1292382 -0.2419051 -0.8610051 -0.4473836 0.01511288
-0.0778098 -0.269014 0.1305191 -0.2418404 -0.8642808 -0.4410577 0.01547449
-0.07753753 -0.2697776 0.1319404 -0.2398413 -0.8697321 -0.4313262 0.01551774
-0.07725599 -0.2705395 0.1333742 -0.2345903 -0.874917 -0.4236596 0.01584204
-0.07684588 -0.2714189 0.1348618 -0.2277974 -0.8799582 -0.4168714 0.01573822
-0.07631632 -0.2723742 0.1364126 -0.2217999 -0.8835417 -0.412503 0.01551855
-0.07567263 -0.2733823 0.1380453 -0.2156343 -0.8874633 -0.4073213 0.01530064
-0.07504979 -0.2743747 0.1396893 -0.2050623 -0.8917559 -0.4033869 0.01512501
-0.07445486 -0.2753339 0.1413404 0.1937062 0.8973252 0.3965926 0.01555639
-0.07423026 -0.2759902 0.1427383 0.1878127 0.9004808 0.3922508 0.0158348
-0.07347324 -0.2769994 0.1445721 0.1762669 0.9052706 0.3865425 0.0164963
-0.07313888 -0.2776878 0.1460653 0.1700568 0.9077805 0.3834257 0.01691343
-0.07262485 -0.2784751 0.1477263 0.1668658 0.9090645 0.3817821 0.01756207
-0.0722452 -0.2791393 0.1492306 0.1698773 0.9094388 0.3795561 0.01813748
-0.07182946 -0.2799287 0.1508035 0.1637897 0.9091458 0.3829188 0.01819341
-0.07148129 -0.2806665 0.1522687 0.1613715 0.9079159 0.3868436 0.01818059
-0.07105326 -0.2814577 0.1538253 0.1583177 0.9069889 0.3902653 0.01796196
-0.07069223 -0.2821347 0.1552761 0.1563064 0.9085034 0.3875435 0.01803334
-0.07025745 -0.2828993 0.1568281 0.1484032 0.9110019 0.3847752 0.01809892
-0.06981264 -0.2836347 0.1583926 0.1355616 0.9136616 0.3832043 0.01788053
-0.06927158 -0.2844984 0.160198 0.1176516 0.9190863 0.3760831 0.01770511
-0.06882471 -0.2851634 0.1618013 0.1056637 0.920967 0.3750398 0.01741109
-0.06837293 -0.2858375 0.163399 0.09442656 0.9232879 0.3723214 0.01742264
-0.06791796 -0.286514 0.1649945 0.08073545 0.9257125 0.3695108 0.01760968
-0.06745297 -0.2871699 0.1666004 0.07043456 0.926648 0.3692731 0.01827439
-0.06700213 -0.287977 0.1684659 0.05675965 0.9291988 0.3651959 0.01726351
-0.06658943 -0.2888073 0.1705008 0.04710038 0.9306213 0.3629402 0.01748941
-0.06613886 -0.2894168 0.172125 0.03884287 0.9330071 0.3577559 0.01765161
-0.06569439 -0.2899991 0.1737656 0.02803618 0.9350231 0.3534769 0.01864796
-0.06522961 -0.2905597 0.1754079 0.02080695 0.9373743 0.3477021 0.01959601
-0.0647039 -0.2910718 0.1768935 0.01878398 0.9407397 0.3386092 0.02030514
-0.06422271 -0.2916285 0.1785427 0.01340837 0.9426289 0.333573 0.0205726
-0.06379195 -0.292234 0.1803287 0.005593266 0.9450046 0.3270092 0.02120312
-0.06331606 -0.2927729 0.1819774 -0.002191659 0.9474925 0.3197706 0.02165983
-0.06277693 -0.2932293 0.183504 -0.009586364 0.949596 0.3133298 0.02188732
-0.06228523 -0.2937215 0.1851678 -0.01592947 0.9527319 0.3033945 0.0227729
-0.06179592 -0.2942075 0.1868335 -0.02537397 0.9559098 0.292562 0.02351902
-0.061297 -0.2947133 0.1884955 -0.03189572 0.9593743 0.2803277 0.02392548
-0.06079366 -0.2952192 0.1901666 -0.03797041 0.9615908 0.2718481 0.02465532
-0.06028946 -0.2957198 0.1918446 -0.04638591 0.9630635 0.2652492 0.02468907
-0.05977567 -0.2962157 0.1935282 -0.0490248 0.9637028 0.2624376 0.02473916
-0.05944295 -0.2968505 0.1954459 -0.0556622 0.9645187 0.2580802 0.02458758
-0.0588358 -0.2972608 0.1970215 -0.05902568 0.964989 0.2555628 0.02447157
-0.05840697 -0.2977561 0.1988523 -0.05925669 0.9656073 0.2531622 0.02529472
-0.05789651 -0.2981703 0.2005719 -0.0652767 0.9647986 0.2547605 0.02578503
-0.05737786 -0.2985758 0.2022907 -0.06815341 0.9644117 0.2554706 0.02606097
-0.05695346 -0.2990462 0.2041767 -0.07056693 0.9617642 0.264632 0.02741661
-0.05643412 -0.2994709 0.2059069 -0.07526075 0.959226 0.2724361 0.02888538
-0.05590404 -0.2998933 0.2076241 -0.07624797 0.9579188 0.276727 0.03026199
-0.05537809 -0.3003301 0.2093272 -0.08158969 0.9570938 0.2780548 0.03149571
-0.05484356 -0.300763 0.2110318 -0.08348269 0.9559976 0.2812458 0.03301081
-0.05429821 -0.3012291 0.2127198 -0.08008111 0.9556167 0.2835205 0.03531699
-0.05358318 -0.3015497 0.2139893 -0.06527087 0.9580373 0.2791134 0.03775099
-0.05284159 -0.3017876 0.2150876 -0.05841503 0.9617876 0.2674925 0.04007984
-0.0525437 -0.3025291 0.21732 -0.04924285 0.959841 0.2761896 0.04494339
-0.0520371 -0.3029511 0.2190126 -0.04052329 0.9617957 0.2707524 0.04955509
-0.05156773 -0.3035185 0.2206633 -0.01918472 0.963613 0.2666124 0.05531763
-0.05116793 -0.3042289 0.2225203 0.01814416 0.9656121 0.2593535 0.06244284
-0.05068145 -0.3050164 0.2245858 0.04608399 0.9652007 0.2574183 0.06886823
-0.05029048 -0.3057302 0.226237 0.09603032 0.9663464 0.2386479 0.07670154
-0.04998993 -0.3064429 0.2279373 0.1537886 0.9656857 0.2092848 0.08196805
-0.0484119 -0.3084893 0.2307415 0.2605203 0.9424195 0.2097016 0.09749933
-0.04871243 -0.3093291 0.2319913 0.3946541 0.9117996 0.1134456 0.1017343
-0.0488342 -0.3103097 0.233799 0.5171616 0.8551064 0.03656644 0.1044539
-0.04899795 -0.310909 0.2357847 -0.6112182 -0.7902133 0.04444522 0.103405
-0.04906756 -0.3112065 0.2378395 -0.677266 -0.7272561 0.1113979 0.1012685
-0.0489957 -0.3113221 0.2399032 0.7190944 0.6748511 -0.1657687 0.09724835
-0.04867524 -0.3112658 0.2419549 0.7386763 0.6371914 -0.2198741 0.09217167
-0.04786283 -0.3117939 0.2438472 0.756947 0.5979549 -0.2635928 0.08637802
-0.0473077 -0.3116763 0.245761 0.7548994 0.586619 -0.2932662 0.0815404
-0.04667091 -0.311515 0.247639 0.747847 0.5812314 -0.3207724 0.0776535
-0.0459706 -0.3113066 0.249466 0.7392357 0.5792503 -0.3435109 0.07427499
-0.04484542 -0.31175 0.2511502 0.7293059 0.5722343 -0.375048 0.06930367
-0.04456172 -0.3108465 0.2530945 0.7184904 0.5747008 -0.3917788 0.06670789
-0.04513008 -0.3087133 0.2553852 0.6959988 0.5942515 -0.4030519 0.0648897
-0.04481291 -0.3078537 0.2573386 0.6780421 0.6046185 -0.4179658 0.062533
-0.04404514 -0.3075734 0.2591313 0.6593718 0.6084344 -0.4416295 0.05909074
-0.04364592 -0.3066842 0.261068 0.6332409 0.6230713 -0.4591169 0.05725591
-0.04286505 -0.3063987 0.2627878 -0.6116214 -0.6350038 0.4718998 0.05465926
-0.04245586 -0.3055916 0.2646652 -0.5797166 -0.6632876 0.4732633 0.05296173
-0.03966497 -0.3078828 0.2652316 -0.5941536 -0.6213694 0.5107657 0.05307596
-0.03888941 -0.3074289 0.2668408 -0.5738582 -0.6281978 0.5254086 0.05247436
-0.03814678 -0.306976 0.2684521 -0.5540577 -0.6376162 0.5352249 0.05224781
-0.03925697 -0.3039745 0.2711177 -0.4898936 -0.725419 0.4834992 0.04984125
-0.03667457 -0.3059614 0.2716279 -0.5144933 -0.6717718 0.5329346 0.05432795
-0.03670041 -0.3043655 0.2736653 -0.4825245 -0.7145398 0.5065597 0.05306823
-0.03702616 -0.3024707 0.2758612 -0.4290275 -0.7689053 0.4740464 0.0480808
-0.03525816 -0.3031496 0.2767929 -0.4319676 -0.7553162 0.4928503 0.0511432
-0.03458538 -0.302546 0.2783886 -0.4148165 -0.7684163 0.4873023 0.0512079
-0.03429464 -0.3015619 0.2802272 -0.3947737 -0.7855793 0.4764651 0.05161402
-0.03364861 -0.3009431 0.281838 -0.3785565 -0.8001847 0.4651875 0.05096516
-0.03266954 -0.3006814 0.2832596 -0.371695 -0.806492 0.4597973 0.0528858
-0.03240936 -0.2997685 0.285133 -0.3645169 -0.817349 0.4461704 0.05294204
-0.03177562 -0.2990963 0.2867372 -0.3542217 -0.8231393 0.4438118 0.05383224
-0.03084267 -0.2987991 0.28821 -0.3467866 -0.8282161 0.4402242 0.05508268
-0.02957134 -0.2987359 0.2895022 -0.3398374 -0.832462 0.4376272 0.05650598
-0.02901292 -0.2981412 0.2912787 -0.3351742 -0.8418454 0.4230302 0.05957715
-0.02778052 -0.2980886 0.2927534 -0.3320493 -0.8487683 0.411504 0.06401634
-0.0265418 -0.2980355 0.2943399 -0.3320416 -0.8556969 0.396902 0.06891495
-0.02599273 -0.2974546 0.2962305 -0.3309924 -0.8627683 0.3821975 0.07165406
-0.02512322 -0.2971966 0.298053 -0.331156 -0.8686248 0.3685466 0.07665562
-0.02461794 -0.2967176 0.3000521 -0.3310795 -0.8761219 0.3504236 0.07902871
-0.02409003 -0.2963082 0.302077 -0.3356617 -0.8816715 0.3316423 0.08066925
-0.02396971 -0.2956996 0.3042215 -0.3371991 -0.8907878 0.3046209 0.08345114
-0.02354798 -0.295386 0.3063281 -0.3367386 -0.8998955 0.2771192 0.08684894
-0.02385671 -0.2942651 0.3080614 -0.3699281 -0.8872495 0.2755748 0.08860299
-0.02307594 -0.2941877 0.3100113 -0.3674917 -0.8924267 0.2617714 0.09113547
-0.02260344 -0.2938751 0.3119017 -0.3738863 -0.8926572 0.2517385 0.09242381
-0.02351951 -0.2926149 0.3134988 -0.4216053 -0.8730739 0.2449306 0.09271312
-0.02165018 -0.2933024 0.315746 -0.3951833 -0.8915998 0.2210884 0.09397644
-0.02124843 -0.2930431 0.3177058 -0.3996682 -0.8948404 0.1988116 0.09530336
-0.02082653 -0.2927647 0.3196189 -0.4066533 -0.8954669 0.181031 0.09638377
-0.02054543 -0.2925314 0.3214583 -0.3941776 -0.9016013 0.178155 0.0974971
-0.01977307 -0.2927833 0.3236427 0.3422896 0.9238569 -0.1712492 0.09834366
-0.0199418 -0.2919818 0.3251914 -0.3679548 -0.9170685 0.1536058 0.09995659
-0.01919816 -0.292153 0.3273532 0.3047547 0.9395229 -0.1562735 0.09679809
-0.01921906 -0.2916482 0.3290174 0.2844408 0.9474243 -0.1465627 0.09839988
-0.0188763 -0.2913054 0.3308293 0.266607 0.9535462 -0.1402512 0.09924788
-0.01880414 -0.2908399 0.3324216 -0.2571981 -0.9565749 0.1371628 0.09934241
-0.01828256 -0.2907563 0.3344116 0.2042507 0.9687139 -0.1409795 0.09341969
-0.01794222 -0.2905481 0.3361501 -0.1798852 -0.9701989 0.1623438 0.09027216
-0.01763399 -0.2904194 0.3379012 0.1366531 0.9715983 -0.1931913 0.08362682
-0.01693561 -0.2902929 0.3399152 -0.084135 -0.9697518 0.2291351 0.07067484
-0.01657068 -0.289991 0.3416637 -0.05120888 -0.9664446 0.2517193 0.06433545
-0.01615568 -0.2896299 0.3433949 -0.02729086 -0.9596733 0.2797899 0.05497764
-0.01568624 -0.2890669 0.3451566 -0.01848915 -0.9596403 0.2806219 0.05255901
-0.01521231 -0.2885586 0.346901 -0.01122959 -0.9556994 0.2941303 0.04927009
-0.01535963 -0.2875794 0.3480415 -0.03868534 -0.9646588 0.2606472 0.07021018
-0.01483749 -0.2870631 0.3498196 -0.01946406 -0.9610012 0.2758589 0.06117369
-0.01389073 -0.286643 0.3520112 0.0186064 -0.9519875 0.3055713 0.04099603
-0.01341533 -0.2863049 0.3538139 0.05090151 -0.9380573 0.342721 0.02308062
-0.01292388 -0.2857417 0.3555699 0.06671241 -0.9290612 0.3638611 0.01480889
-0.01238878 -0.2850376 0.3573121 0.0701248 -0.9260682 0.3707834 0.01526592
-0.01185514 -0.2843662 0.3590814 0.07393254 -0.925326 0.371895 0.01551206
-0.01139057 -0.2836094 0.3607719 0.08580447 -0.9216772 0.3783502 0.01665372
-0.01091425 -0.2828878 0.362487 0.09435873 -0.9198028 0.3808664 0.01703401
-0.01037788 -0.2822259 0.3643765 0.10698 -0.9168279 0.3846842 0.01771957
-0.01002004 -0.2813724 0.3657274 0.1082295 -0.9142999 0.3903105 0.01839676
-0.009518069 -0.2806078 0.3674264 0.1161788 -0.9100121 0.3979704 0.01844723
-0.008994367 -0.2798423 0.3691292 0.1329078 -0.9041609 0.4059908 0.01838529
-0.008509408 -0.2790957 0.3708942 0.1456036 -0.8998675 0.4111423 0.01738205
-0.008027369 -0.2782476 0.3725518 0.1535341 -0.8968045 0.4149324 0.01741018
-0.007566351 -0.2774326 0.374258 0.1556187 -0.8948025 0.4184631 0.01673774
-0.007149541 -0.2765809 0.3760024 0.1535745 -0.8909084 0.4274307 0.01663818
-0.006708911 -0.2756748 0.3776538 0.164232 -0.8890989 0.4272364 0.01652273
-0.006370462 -0.2747843 0.3794802 0.1736621 -0.8900557 0.4214764 0.01618924
-0.005965706 -0.2738499 0.3811658 0.1855765 -0.8897759 0.4169655 0.0159312
-0.005606051 -0.2729248 0.382931 0.196403 -0.8898766 0.4117588 0.01593202
-0.005174695 -0.2719944 0.3844714 0.2122666 -0.8839563 0.4166103 0.01575768
-0.004762665 -0.2710807 0.3861137 0.2237182 -0.880136 0.4187013 0.01621657
-0.004343504 -0.2702135 0.3877275 0.23551 -0.8728358 0.4274257 0.01643584
-0.003884158 -0.2693371 0.389351 0.2412755 -0.8675268 0.434952 0.01605456
-0.003293313 -0.2683026 0.3907848 0.253884 -0.8615939 0.4395438 0.01552603
-0.002835072 -0.2673678 0.3923872 0.2592959 -0.856253 0.4467621 0.01528759
-0.002374236 -0.2664157 0.393987 0.2635742 -0.8516604 0.4529936 0.01478739
-0.001896334 -0.2654754 0.3955924 0.2650376 -0.8475146 0.4598632 0.01430728
-0.001434503 -0.2644906 0.3971867 0.2678834 -0.8443682 0.4639837 0.01405384
-0.0008493315 -0.2635208 0.3987494 0.2722597 -0.8436528 0.462736 0.01430055
-0.0001446108 -0.2625291 0.4002098 0.2784351 -0.8415092 0.4629647 0.01416479
0.0003112867 -0.2615017 0.4017782 0.2854485 -0.8375433 0.4658759 0.01422697
0.0007794913 -0.2604981 0.4033606 0.2895974 -0.8358614 0.4663359 0.01458068
0.001239446 -0.2594666 0.4049271 0.2960241 -0.8354505 0.4630251 0.01472807
0.001684034 -0.2583798 0.4064606 0.2967203 -0.8334478 0.466178 0.01505524
0.002117157 -0.2572627 0.4079748 0.3023278 -0.8285503 0.4712772 0.01568071
0.002556907 -0.2561564 0.4094954 0.3059263 -0.8261966 0.4730839 0.01651282
0.002974167 -0.2549861 0.4109755 0.3088944 -0.8217171 0.4789209 0.0191444
0.003421968 -0.2538887 0.4124976 0.3080268 -0.817994 0.4858039 0.0194556
0.004292764 -0.2527824 0.4137484 0.3111892 -0.8141654 0.4902002 0.02034905
0.004736589 -0.2516936 0.4152782 0.3090606 -0.8112127 0.4964024 0.02011807
0.004407391 -0.2507043 0.4173936 0.3088269 -0.8079107 0.5019026 0.01949875
0.005248237 -0.2495472 0.4186174 0.3027246 -0.8122339 0.4986319 0.01979372
0.00570134 -0.2484493 0.4201363 0.2882108 -0.8207207 0.4933074 0.01925348
0.005875765 -0.2473356 0.422055 0.2774111 -0.8297302 0.4843458 0.01962481
0.006482969 -0.2463963 0.4235445 0.2750959 -0.8323834 0.481103 0.01942461
0.007145198 -0.2454322 0.4248327 0.2682031 -0.83554 0.4795206 0.01953187
0.007698651 -0.2444363 0.4262313 0.2655526 -0.8371894 0.4781168 0.02004239
0.008224462 -0.2434369 0.4275995 0.2589215 -0.8406042 0.4757563 0.02086253
0.008729948 -0.2424562 0.4291274 0.2652444 -0.8427914 0.468346 0.02224231
0.009207325 -0.2414762 0.430655 0.2633966 -0.8460605 0.4634693 0.02285466
0.009464622 -0.2403032 0.4327338 0.2587737 -0.8481428 0.4622663 0.02260635
0.009875234 -0.2392073 0.4344576 0.256914 -0.8487309 0.4622241 0.02223179
0.01036819 -0.2382108 0.4360191 0.2579308 -0.848048 0.4629106 0.02276658
0.01087433 -0.2372316 0.4375984 0.2627695 -0.8427967 0.4697298 0.02154445
0.01133768 -0.2361229 0.4391209 0.2622844 -0.8354457 0.4829463 0.02100656
0.01180842 -0.2350094 0.440646 0.2657733 -0.8269123 0.4955609 0.02135396
0.01225915 -0.2338406 0.4421309 0.267262 -0.8216822 0.5033979 0.02140058
0.01229575 -0.2322839 0.4445745 0.2653163 -0.8156359 0.5141453 0.02166016
0.01269104 -0.2309632 0.4461792 0.2593574 -0.8159071 0.5167488 0.02141757
0.01320021 -0.2297977 0.4474586 0.2562593 -0.8137609 0.5216553 0.02106998
0.01377629 -0.2287926 0.4486326 0.2551268 -0.8106763 0.526986 0.02096858
0.01420143 -0.2276302 0.4503024 0.2544064 -0.8017523 0.5408056 0.01976141
0.01466489 -0.2265021 0.4517956 0.257045 -0.7913113 0.554756 0.0187285
0.01509683 -0.2252971 0.4532289 0.2649908 -0.7733873 0.5758924 0.01827587
0.01534127 -0.2239793 0.4550488 0.2730844 -0.7614961 0.5878338 0.01792887
0.01572457 -0.2227561 0.456399 0.285446 -0.7397426 0.609345 0.01745868
0.01599989 -0.2214234 0.4578175 0.2971897 -0.7237926 0.6227379 0.01839186
0.01637715 -0.2201802 0.4591543 0.3084885 -0.7026443 0.6411908 0.01952835
0.01705767 -0.21879 0.4602616 0.315576 -0.6936869 0.6474645 0.01871134
0.01777911 -0.2173904 0.4613801 0.3226306 -0.6899481 0.6479824 0.01897044
0.01817112 -0.2159913 0.4627109 0.3219372 -0.6869532 0.6514995 0.01865802
0.01860083 -0.2146223 0.4640824 0.3310023 -0.6777136 0.6566139 0.01867153
0.0190167 -0.2132185 0.4654303 0.3383224 -0.6670552 0.6637586 0.01934267
0.01938925 -0.211762 0.4667207 0.3371025 -0.6605529 0.670844 0.02061578
0.01963064 -0.2102892 0.4680453 0.3366997 -0.6535407 0.6778775 0.02148228
0.01957353 -0.2089653 0.4697769 0.3105937 -0.6636368 0.6805276 0.02449608
0.01988371 -0.207466 0.471135 0.3056082 -0.6661747 0.6803049 0.02728707
0.02027583 -0.2060031 0.4724636 0.3061794 -0.6677068 0.6785439 0.02763335
0.0209135 -0.2045555 0.47351 0.3030295 -0.6719778 0.6757359 0.0258709
0.02100341 -0.2029353 0.4750333 0.3090061 -0.6770663 0.6679045 0.02678769
0.02137603 -0.2014276 0.4763151 0.3101647 -0.6789324 0.6654686 0.02696359
0.02201543 -0.2000877 0.477293 0.3156642 -0.6740125 0.6678798 0.02534232
0.02212053 -0.198494 0.4789054 0.3193401 -0.6753872 0.6647361 0.02600881
0.02251031 -0.1970526 0.4801876 0.3215881 -0.6694186 0.6696714 0.02625457
0.02286701 -0.195593 0.4814342 0.3292351 -0.6594459 0.675822 0.02640748
0.02316079 -0.1940685 0.4827717 0.3266928 -0.6537955 0.6825126 0.02619326
0.02348752 -0.1925599 0.4839962 0.3365852 -0.6466357 0.6845236 0.02600428
0.02420652 -0.191069 0.4846742 0.3585482 -0.6353811 0.6839109 0.02524909
0.02454834 -0.1895018 0.4858358 0.3648014 -0.6269771 0.6883456 0.02462573
0.02493092 -0.1879978 0.4870637 0.3672242 -0.6149694 0.6978245 0.02427231
0.02529521 -0.1864543 0.4882529 0.3672281 -0.6041353 0.7072227 0.0246001
0.02537612 -0.1848566 0.4895765 0.3671783 -0.5922668 0.7172169 0.02448066
0.02566366 -0.183192 0.4906317 0.3718113 -0.5875134 0.7187381 0.02343332
0.02564722 -0.1816261 0.4920597 0.3682092 -0.5793664 0.7271564 0.02253048
0.02636451 -0.1800108 0.4929505 0.374025 -0.5876129 0.7175071 0.02070039
0.0263425 -0.1783035 0.4944325 0.368529 -0.597281 0.7123495 0.02064064
0.02676901 -0.1767376 0.4956411 0.3599093 -0.5993061 0.7150507 0.0222015
0.02720617 -0.1751973 0.4969569 0.3562441 -0.6093335 0.7083806 0.02218753
0.02775319 -0.1737218 0.4981141 0.3490351 -0.6181951 0.7042793 0.02184342
0.02818258 -0.1722186 0.4994097 0.3459076 -0.6266873 0.6982915 0.02043346
0.02860519 -0.170724 0.500685 0.3437184 -0.6305158 0.695922 0.01822925
0.02906618 -0.1691421 0.5013426 0.3267362 -0.6270251 0.7071655 0.02828833
0.02942586 -0.1675702 0.502494 0.3285488 -0.6187846 0.7135553 0.0271005
0.02981268 -0.1660371 0.5036951 0.3417767 -0.6063709 0.7179854 0.02176033
0.03020256 -0.1644827 0.5048809 0.3574424 -0.5941947 0.7205328 0.01629015
0.03044211 -0.1627906 0.506119 0.3646811 -0.5898736 0.7204561 0.01697736
0.03077799 -0.1611467 0.5071937 0.3685729 -0.5872948 0.7205822 0.01691782
0.03111839 -0.1595051 0.5082719 0.3682548 -0.581418 0.725494 0.01677502
0.0313414 -0.1577879 0.509487 0.3757802 -0.5736458 0.7278185 0.01559537
0.03153079 -0.1560152 0.5106168 0.3734656 -0.5653345 0.7354729 0.01628631
0.03186709 -0.1543691 0.5116755 0.3770532 -0.5521445 0.7436178 0.01557682
0.03220729 -0.1526981 0.5127183 0.3715887 -0.5461597 0.7507539 0.01551038
0.03263234 -0.1510546 0.5135965 0.3674567 -0.5374763 0.7590091 0.01602773
0.0329397 -0.14934 0.5145915 0.3635218 -0.5267445 0.7683697 0.01619351
0.03325906 -0.1476412 0.5156099 0.3633079 -0.5202177 0.7729043 0.01620982
0.03357605 -0.1459311 0.516618 0.3656772 -0.5114067 0.7776526 0.01588104
0.03388941 -0.1442052 0.5176137 0.3698255 -0.4970354 0.7849744 0.01583968
0.03408135 -0.142425 0.5186823 0.3708571 -0.4820433 0.7937879 0.01555972
0.0343752 -0.1406718 0.519631 0.3764535 -0.4645957 0.8015195 0.01533975
0.03450766 -0.1388571 0.5205675 0.3823767 -0.4379385 0.8136325 0.01567315
0.03474787 -0.1370561 0.5213978 0.3893404 -0.4109212 0.8243529 0.01523376
0.03498824 -0.1352392 0.5222218 0.3932168 -0.3936136 0.8309326 0.01496937
0.03546568 -0.133307 0.5228369 0.4030635 -0.3753293 0.8346663 0.01531375
0.03611492 -0.1312979 0.5234079 0.4077086 -0.3609898 0.8387252 0.01586168
0.03632262 -0.1294142 0.5241147 0.4119905 -0.3537986 0.8396966 0.01668276
0.03609382 -0.1276997 0.5250666 0.4074725 -0.345059 0.8455179 0.0160969
0.03662372 -0.125564 0.5254872 0.4005756 -0.3261644 0.8562453 0.01772763
0.03644256 -0.1238971 0.5264106 0.3985777 -0.3147137 0.861447 0.01664706
0.0364649 -0.1220526 0.5270571 0.389465 -0.3055744 0.8688736 0.01693441
0.03651842 -0.1202291 0.5277038 0.3793254 -0.2910404 0.8782983 0.01712474
0.03666865 -0.1183088 0.5282555 0.3734964 -0.2818723 0.8837695 0.0172682
0.03682751 -0.1163913 0.5288455 0.3724606 -0.278296 0.8853385 0.01711087
0.0370223 -0.1144872 0.5294937 0.3666166 -0.2775637 0.8880038 0.01731467
0.0378074 -0.1121892 0.5299868 0.3642144 -0.2824942 0.8874372 0.01803659
0.03798774 -0.1103626 0.5306175 0.3630995 -0.2934272 0.8843411 0.01840953
0.03816732 -0.1085258 0.5311943 0.3660526 -0.3058096 0.8789117 0.01936136
0.03789691 -0.1067913 0.5321435 0.3682157 -0.3241458 0.8714051 0.0203005
0.0379671 -0.1048588 0.5327885 0.3656874 -0.3295305 0.8704495 0.02069365
0.03817442 -0.1029565 0.5335163 0.3730599 -0.3411214 0.8628223 0.0217252
0.03847269 -0.1010647 0.5341024 0.3694536 -0.3597562 0.8567845 0.02206285
0.03931237 -0.09953999 0.5342734 0.3779605 -0.3707412 0.8483495 0.02160683
0.03950327 -0.0978053 0.5348725 0.3763001 -0.392967 0.8390322 0.02128155
0.03966583 -0.09595504 0.5355001 0.3713865 -0.3955761 0.8399951 0.0209903
0.04017972 -0.09439664 0.5360338 0.3792177 -0.3992208 0.8347554 0.02272646
0.04010218 -0.09228648 0.5368441 0.3724225 -0.396596 0.8390549 0.02261903
0.04032579 -0.09045499 0.5375202 0.3731183 -0.3967757 0.8386606 0.02392076
0.04021193 -0.08828115 0.5386595 0.3484678 -0.3896033 0.8525136 0.02422884
0.04023803 -0.08610167 0.5397198 0.3379853 -0.3767861 0.8624373 0.02343525
0.04033822 -0.08402218 0.5405807 0.3333567 -0.3632499 0.8700131 0.02420359
0.04045679 -0.08200957 0.541232 0.3332052 -0.3510884 0.8750493 0.02528544
0.04044331 -0.07977409 0.542114 0.3415293 -0.3554304 0.870073 0.02587287
0.04006592 -0.07731711 0.5435374 0.3913804 -0.3767655 0.8395649 0.02632008
0.04023531 -0.07535633 0.5442674 0.3998153 -0.3812521 0.8335434 0.0264247
0.04042741 -0.07351375 0.54509 0.4131685 -0.3770971 0.8289086 0.02540755
0.04092939 -0.07183673 0.5454233 0.4072069 -0.3803156 0.8303871 0.02414774
0.04155375 -0.07046645 0.5452999 0.4031319 -0.3604571 0.8411631 0.02709647
0.04175897 -0.0685785 0.54591 0.4121663 -0.3401956 0.8452136 0.0275825
0.04145062 -0.06636053 0.5470589 0.4245025 -0.3023987 0.8534359 0.02844384
0.04160022 -0.06448869 0.5475566 0.4305454 -0.2780879 0.8586605 0.02710902
0.04176818 -0.06258916 0.5481514 0.44155 -0.263599 0.8576416 0.026248
0.04192596 -0.06069074 0.548646 0.4466621 -0.2416653 0.8614469 0.02618711
0.04223981 -0.05879423 0.5489182 0.4393639 -0.2205328 0.8708184 0.0257445
0.04320117 -0.05698289 0.5488937 0.4512441 -0.2036829 0.8688452 0.02404542
0.04335564 -0.05497565 0.5493479 0.4505443 -0.1878964 0.872757 0.02426753
0.04354155 -0.05298881 0.5498467 0.4515063 -0.1785606 0.8742186 0.02428282
0.04222627 -0.0509374 0.5512207 0.4536397 -0.1619655 0.8763437 0.02579602
0.04236594 -0.04881937 0.5515765 0.4497173 -0.1725617 0.8763429 0.02546304
0.04253265 -0.04674982 0.5520128 0.4482752 -0.1781698 0.8759594 0.02510474
0.04288996 -0.04472566 0.5523764 0.4443378 -0.1854255 0.8764596 0.0239855
0.04411996 -0.0430456 0.5519814 0.4557035 -0.1887181 0.8698965 0.02162738
0.04428499 -0.04105919 0.5523959 0.4577109 -0.1875698 0.8690905 0.02153472
0.04460304 -0.03911363 0.5526856 0.4569528 -0.1807189 0.8709391 0.02106885
0.04453922 -0.03704476 0.5531211 0.4526615 -0.1783007 0.8736742 0.02073272
0.04386108 -0.03471887 0.5539597 0.4416932 -0.1682743 0.881244 0.02313337
0.04373511 -0.03261568 0.5542366 0.4467733 -0.1604925 0.880134 0.02386772
0.04374409 -0.03057447 0.5543744 0.4522498 -0.1502881 0.8791379 0.02461508
0.04377166 -0.02858949 0.5545845 0.4636434 -0.1267114 0.8769145 0.02416622
0.04362306 -0.02652452 0.5548366 0.4665931 -0.1153747 0.8769149 0.02475683
0.04353399 -0.02460808 0.5548897 0.4825141 -0.07568724 0.8726119 0.02744834
0.04380542 -0.02266206 0.5545837 0.4921841 -0.02476962 0.8701386 0.03241325
0.04328896 -0.02069863 0.5550157 0.4823762 -0.02681293 0.8755537 0.03345852
0.04339561 -0.01876865 0.5545397 0.5015387 0.02717644 0.8647082 0.03784637
0.04325485 -0.01694182 0.5542794 0.4934904 0.07832053 0.8662177 0.03992133
0.0431217 -0.01507414 0.5540665 0.4896327 0.1140221 0.8644413 0.04122838
0.04311616 -0.01319347 0.5540153 0.4806057 0.148397 0.8642896 0.0388089
0.04310828 -0.01126104 0.554011 0.4767781 0.1727371 0.8618844 0.03498289
0.04314974 -0.009247283 0.5540797 0.4730465 0.1846885 0.8614622 0.03227717
0.04372866 -0.006345579 0.5529693 0.5106711 0.2264713 0.8294129 0.04324797
0.04368659 -0.004308587 0.5529437 0.5235047 0.2161256 0.8241557 0.0459428
0.04364001 -0.002267974 0.5528823 0.5261583 0.2004386 0.826427 0.0486226
0.0441817 0.0002652423 0.5521417 0.5338296 0.1812297 0.825943 0.05025029
0.04527941 0.002984453 0.5507489 0.5681551 0.1722591 0.8046905 0.05569342
0.04520761 0.004698029 0.5506386 0.5719376 0.1268772 0.8104256 0.05768931
0.04563079 0.006489432 0.5500748 0.5756004 0.07482091 0.8143008 0.05864267
0.04550171 0.008186433 0.5499256 0.5729911 0.03656393 0.8187455 0.05846386
0.04544871 0.009968995 0.5498939 0.5684118 0.008602999 0.8226992 0.05731466
0.0440641 0.01210706 0.5512261 0.5639208 -0.001426762 0.8258277 0.05074788
0.04403367 0.01406953 0.5511344 0.5640939 -0.03242918 0.8250735 0.04918389
0.0440498 0.01601791 0.5511068 0.5630456 -0.06813312 0.8236125 0.04642335
0.04353889 0.01826953 0.5514106 0.5541122 -0.08574582 0.8280141 0.04147523
0.04390935 0.01996596 0.550853 0.5404655 -0.1177618 0.8330842 0.0372193
0.04395234 0.02196662 0.5508621 0.5376846 -0.115408 0.8352103 0.0357892
0.0434735 0.02433971 0.551102 0.5316868 -0.1219812 0.8381108 0.03545659
0.04361853 0.02632975 0.5512522 0.5292349 -0.1027151 0.8422351 0.03105039
0.04372701 0.02833049 0.5513651 0.5134791 -0.09062453 0.8533033 0.02716692
0.04322113 0.03090065 0.5523612 0.5026238 -0.04766748 0.8631902 0.02243052
