# .PCD v.7 - Point Cloud Data file format
FIELDS x y z normal_x normal_y normal_z curvature
SIZE 4 4 4 4 4 4 4
TYPE F F F F F F F
COUNT 1 1 1 1 1 1 1
WIDTH 595
HEIGHT 1
VIEWPOINT 0 0 0 1 0 0 0
POINTS 595
DATA ascii
25.19504 -4.572598 -1.179809 1.079419e-33 2.194346e-33 2.037024e-38 1.401298e-45
26.29788 -4.776624 -0.8164083 1.079419e-33 2.194346e-33 2.037024e-38 1.401298e-45
27.75847 -5.04644 -0.4337481 1.079419e-33 2.194346e-33 2.037024e-38 1.401298e-45
27.57272 -5.012809 0.0575461 1.079419e-33 2.194346e-33 2.037024e-38 1.401298e-45
27.76148 -5.047615 0.5351862 1.079419e-33 2.194346e-33 2.037024e-38 1.401298e-45
27.2736 -4.957 1.018726 1.079419e-33 2.194346e-33 2.037024e-38 1.401298e-45
27.32857 -4.967739 1.495104 1.079419e-33 2.194346e-33 2.037024e-38 1.401298e-45
22.3927 -4.053964 1.792983 1.079419e-33 2.194346e-33 2.037024e-38 1.401298e-45
23.0341 -4.171939 2.216964 1.079419e-33 2.194346e-33 2.037024e-38 1.401298e-45
25.72675 -4.671134 2.811791 1.079419e-33 2.194346e-33 2.037024e-38 1.401298e-45
22.44925 -4.06387 4.952019 1.079419e-33 2.194346e-33 2.037024e-38 1.401298e-45
23.23087 -4.209122 8.085421 1.079419e-33 2.194346e-33 2.037024e-38 1.401298e-45
21.49224 -3.887592 11.8968 1.079419e-33 2.194346e-33 2.037024e-38 1.401298e-45
21.89169 -3.961656 12.58734 1.079419e-33 2.194346e-33 2.037024e-38 1.401298e-45
14.89569 -3.107457 -1.190608 1.079419e-33 2.194346e-33 2.037024e-38 1.401298e-45
16.0837 -3.363683 -1.087782 1.079419e-33 2.194346e-33 2.037024e-38 1.401298e-45
26.0708 -5.52033 -1.040745 1.079419e-33 2.194346e-33 2.037024e-38 1.401298e-45
27.20432 -5.765077 -0.6520956 1.079419e-33 2.194346e-33 2.037024e-38 1.401298e-45
28.33203 -6.008492 -0.2235272 1.079419e-33 2.194346e-33 2.037024e-38 1.401298e-45
29.45195 -6.250465 0.2447672 1.079419e-33 2.194346e-33 2.037024e-38 1.401298e-45
29.20639 -6.196794 0.763877 1.079419e-33 2.194346e-33 2.037024e-38 1.401298e-45
30.28197 -6.429363 1.286749 1.079419e-33 2.194346e-33 2.037024e-38 1.401298e-45
26.28516 -5.566135 1.708882 1.079419e-33 2.194346e-33 2.037024e-38 1.401298e-45
25.11751 -5.314833 2.117003 1.079419e-33 2.194346e-33 2.037024e-38 1.401298e-45
32.77262 -6.96701 3.042047 1.079419e-33 2.194346e-33 2.037024e-38 1.401298e-45
25.41506 -5.379018 3.023749 1.079419e-33 2.194346e-33 2.037024e-38 1.401298e-45
24.44324 -5.168887 4.678029 1.079419e-33 2.194346e-33 2.037024e-38 1.401298e-45
22.8994 -4.835887 5.263663 1.079419e-33 2.194346e-33 2.037024e-38 1.401298e-45
23.78144 -5.025887 5.862925 1.079419e-33 2.194346e-33 2.037024e-38 1.401298e-45
24.19371 -5.115878 10.56752 1.079419e-33 2.194346e-33 2.037024e-38 1.401298e-45
24.54977 -5.192644 11.2115 1.079419e-33 2.194346e-33 2.037024e-38 1.401298e-45
25.34853 -5.365501 12.07466 1.079419e-33 2.194346e-33 2.037024e-38 1.401298e-45
22.17714 -4.680353 12.07636 1.079419e-33 2.194346e-33 2.037024e-38 1.401298e-45
15.60475 -3.724289 -1.175571 1.079419e-33 2.194346e-33 2.037024e-38 1.401298e-45
16.9505 -4.056038 -1.068592 1.079419e-33 2.194346e-33 2.037024e-38 1.401298e-45
27.38753 -6.629892 -0.9174454 1.079419e-33 2.194346e-33 2.037024e-38 1.401298e-45
28.2497 -6.841695 -0.4782842 1.079419e-33 2.194346e-33 2.037024e-38 1.401298e-45
31.09378 -7.543307 -0.07885944 1.079419e-33 2.194346e-33 2.037024e-38 1.401298e-45
28.27356 -6.847676 0.5201949 1.079419e-33 2.194346e-33 2.037024e-38 1.401298e-45
28.73309 -6.961936 1.019907 1.079419e-33 2.194346e-33 2.037024e-38 1.401298e-45
29.13647 -7.061004 1.535037 1.079419e-33 2.194346e-33 2.037024e-38 1.401298e-45
30.84003 -7.481249 2.112651 1.079419e-33 2.194346e-33 2.037024e-38 1.401298e-45
30.79732 -7.470685 2.656765 1.079419e-33 2.194346e-33 2.037024e-38 1.401298e-45
24.93433 -6.025256 2.777147 1.079419e-33 2.194346e-33 2.037024e-38 1.401298e-45
25.2201 -6.09549 3.245123 1.079419e-33 2.194346e-33 2.037024e-38 1.401298e-45
24.65845 -5.957354 4.514446 1.079419e-33 2.194346e-33 2.037024e-38 1.401298e-45
23.01267 -5.551667 11.34283 1.079419e-33 2.194346e-33 2.037024e-38 1.401298e-45
22.31522 -5.380548 11.49619 1.079419e-33 2.194346e-33 2.037024e-38 1.401298e-45
22.42155 -5.406502 12.03157 1.079419e-33 2.194346e-33 2.037024e-38 1.401298e-45
14.50739 -3.896099 -1.162825 1.079419e-33 2.194346e-33 2.037024e-38 1.401298e-45
16.00312 -4.312691 -1.107354 1.079419e-33 2.194346e-33 2.037024e-38 1.401298e-45
26.36494 -7.194818 -1.094727 1.079419e-33 2.194346e-33 2.037024e-38 1.401298e-45
26.47376 -7.225472 -0.6307155 1.079419e-33 2.194346e-33 2.037024e-38 1.401298e-45
26.74714 -7.301392 -0.1710936 1.079419e-33 2.194346e-33 2.037024e-38 1.401298e-45
26.76241 -7.305754 0.3046138 1.079419e-33 2.194346e-33 2.037024e-38 1.401298e-45
26.87617 -7.338168 0.7795953 1.079419e-33 2.194346e-33 2.037024e-38 1.401298e-45
27.06885 -7.391162 1.25931 1.079419e-33 2.194346e-33 2.037024e-38 1.401298e-45
33.5596 -9.196989 2.521418 1.079419e-33 2.194346e-33 2.037024e-38 1.401298e-45
21.83896 -5.936519 2.758336 1.079419e-33 2.194346e-33 2.037024e-38 1.401298e-45
31.55845 -8.641082 4.695148 1.079419e-33 2.194346e-33 2.037024e-38 1.401298e-45
30.29044 -8.288696 5.642774 1.079419e-33 2.194346e-33 2.037024e-38 1.401298e-45
24.468 -6.668357 6.990603 1.079419e-33 2.194346e-33 2.037024e-38 1.401298e-45
25.93802 -7.078215 9.854665 1.079419e-33 2.194346e-33 2.037024e-38 1.401298e-45
27.32845 -7.465189 10.88263 1.079419e-33 2.194346e-33 2.037024e-38 1.401298e-45
24.30262 -6.622796 11.76286 1.079419e-33 2.194346e-33 2.037024e-38 1.401298e-45
29.11338 -7.961998 14.55953 1.079419e-33 2.194346e-33 2.037024e-38 1.401298e-45
15.35999 -4.606168 -1.174213 1.079419e-33 2.194346e-33 2.037024e-38 1.401298e-45
17.57452 -5.292944 -1.180838 1.079419e-33 2.194346e-33 2.037024e-38 1.401298e-45
21.58925 -6.537566 -1.303322 1.079419e-33 2.194346e-33 2.037024e-38 1.401298e-45
26.78866 -8.148753 -0.9033055 1.079419e-33 2.194346e-33 2.037024e-38 1.401298e-45
26.68299 -8.116114 -0.4153603 1.079419e-33 2.194346e-33 2.037024e-38 1.401298e-45
26.54091 -8.072422 0.06906055 1.079419e-33 2.194346e-33 2.037024e-38 1.401298e-45
26.53254 -8.070309 0.5453956 1.079419e-33 2.194346e-33 2.037024e-38 1.401298e-45
26.86152 -8.171844 1.021357 1.079419e-33 2.194346e-33 2.037024e-38 1.401298e-45
29.72183 -9.059216 1.557702 1.079419e-33 2.194346e-33 2.037024e-38 1.401298e-45
26.33834 -8.010056 1.965676 1.079419e-33 2.194346e-33 2.037024e-38 1.401298e-45
34.62618 -10.57966 2.90013 1.079419e-33 2.194346e-33 2.037024e-38 1.401298e-45
21.78427 -6.598293 2.575652 1.079419e-33 2.194346e-33 2.037024e-38 1.401298e-45
22.01174 -6.668772 2.98803 1.079419e-33 2.194346e-33 2.037024e-38 1.401298e-45
22.90385 -6.945982 5.578483 1.079419e-33 2.194346e-33 2.037024e-38 1.401298e-45
27.68699 -8.43029 12.52599 1.079419e-33 2.194346e-33 2.037024e-38 1.401298e-45
26.96304 -8.206118 12.78623 1.079419e-33 2.194346e-33 2.037024e-38 1.401298e-45
28.57701 -8.705974 14.11535 1.079419e-33 2.194346e-33 2.037024e-38 1.401298e-45
13.93564 -4.605226 -1.110299 1.079419e-33 2.194346e-33 2.037024e-38 1.401298e-45
16.16341 -5.368444 -1.1656 1.079419e-33 2.194346e-33 2.037024e-38 1.401298e-45
21.79019 -7.29728 -1.14794 1.079419e-33 2.194346e-33 2.037024e-38 1.401298e-45
26.80248 -9.015178 -1.164727 1.079419e-33 2.194346e-33 2.037024e-38 1.401298e-45
27.54192 -9.268652 -0.7242543 1.079419e-33 2.194346e-33 2.037024e-38 1.401298e-45
27.54736 -9.271213 -0.224245 1.079419e-33 2.194346e-33 2.037024e-38 1.401298e-45
27.072 -9.107699 0.2881618 1.079419e-33 2.194346e-33 2.037024e-38 1.401298e-45
27.25015 -9.169389 0.7771058 1.079419e-33 2.194346e-33 2.037024e-38 1.401298e-45
30.1628 -10.16791 1.300088 1.079419e-33 2.194346e-33 2.037024e-38 1.401298e-45
32.13941 -10.84508 1.904009 1.079419e-33 2.194346e-33 2.037024e-38 1.401298e-45
24.96567 -8.386353 2.151107 1.079419e-33 2.194346e-33 2.037024e-38 1.401298e-45
24.56555 -8.249707 2.577668 1.079419e-33 2.194346e-33 2.037024e-38 1.401298e-45
21.91438 -7.340222 2.80098 1.079419e-33 2.194346e-33 2.037024e-38 1.401298e-45
22.40843 -7.510244 3.249965 1.079419e-33 2.194346e-33 2.037024e-38 1.401298e-45
23.99755 -8.05504 5.178487 1.079419e-33 2.194346e-33 2.037024e-38 1.401298e-45
21.69539 -7.266864 9.399355 1.079419e-33 2.194346e-33 2.037024e-38 1.401298e-45
26.38344 -8.874848 11.80544 1.079419e-33 2.194346e-33 2.037024e-38 1.401298e-45
26.96108 -9.073127 12.61495 1.079419e-33 2.194346e-33 2.037024e-38 1.401298e-45
26.52256 -8.922703 12.9895 1.079419e-33 2.194346e-33 2.037024e-38 1.401298e-45
28.14525 -9.47877 14.34857 1.079419e-33 2.194346e-33 2.037024e-38 1.401298e-45
27.77558 -9.352587 14.78327 1.079419e-33 2.194346e-33 2.037024e-38 1.401298e-45
14.82332 -5.380375 -1.137215 1.079419e-33 2.194346e-33 2.037024e-38 1.401298e-45
17.05758 -6.220439 -1.156626 1.079419e-33 2.194346e-33 2.037024e-38 1.401298e-45
20.30271 -7.438988 -1.205459 1.079419e-33 2.194346e-33 2.037024e-38 1.401298e-45
27.29248 -10.06559 -0.9772653 1.079419e-33 2.194346e-33 2.037024e-38 1.401298e-45
27.67602 -10.20934 -0.4970559 1.079419e-33 2.194346e-33 2.037024e-38 1.401298e-45
29.32405 -10.82828 -0.04947041 1.079419e-33 2.194346e-33 2.037024e-38 1.401298e-45
29.34627 -10.83702 0.4878859 1.079419e-33 2.194346e-33 2.037024e-38 1.401298e-45
29.3783 -10.84933 1.025859 1.079419e-33 2.194346e-33 2.037024e-38 1.401298e-45
29.53182 -10.90692 1.567317 1.079419e-33 2.194346e-33 2.037024e-38 1.401298e-45
32.2785 -11.93943 2.21395 1.079419e-33 2.194346e-33 2.037024e-38 1.401298e-45
32.76723 -12.12362 2.835478 1.079419e-33 2.194346e-33 2.037024e-38 1.401298e-45
33.79693 -12.51003 3.517207 1.079419e-33 2.194346e-33 2.037024e-38 1.401298e-45
26.96253 -9.942647 3.49713 1.079419e-33 2.194346e-33 2.037024e-38 1.401298e-45
27.10421 -9.995868 4.011213 1.079419e-33 2.194346e-33 2.037024e-38 1.401298e-45
22.50398 -8.267856 6.447745 1.079419e-33 2.194346e-33 2.037024e-38 1.401298e-45
23.17394 -8.519577 7.061073 1.079419e-33 2.194346e-33 2.037024e-38 1.401298e-45
21.61064 -7.932844 8.348792 1.079419e-33 2.194346e-33 2.037024e-38 1.401298e-45
21.67277 -7.956818 8.809759 1.079419e-33 2.194346e-33 2.037024e-38 1.401298e-45
21.7713 -7.992945 9.292427 1.079419e-33 2.194346e-33 2.037024e-38 1.401298e-45
30.34189 -11.21486 13.26833 1.079419e-33 2.194346e-33 2.037024e-38 1.401298e-45
28.45375 -10.5056 13.09471 1.079419e-33 2.194346e-33 2.037024e-38 1.401298e-45
27.80435 -10.26111 13.41046 1.079419e-33 2.194346e-33 2.037024e-38 1.401298e-45
28.27216 -10.43773 14.2396 1.079419e-33 2.194346e-33 2.037024e-38 1.401298e-45
27.66193 -10.20838 14.56056 1.079419e-33 2.194346e-33 2.037024e-38 1.401298e-45
13.49641 -5.324813 -1.08701 1.079419e-33 2.194346e-33 2.037024e-38 1.401298e-45
15.82182 -6.277653 -1.1658 1.079419e-33 2.194346e-33 2.037024e-38 1.401298e-45
17.97849 -7.160745 -1.136152 1.079419e-33 2.194346e-33 2.037024e-38 1.401298e-45
22.06348 -8.835202 -1.22425 1.079419e-33 2.194346e-33 2.037024e-38 1.401298e-45
27.68207 -11.13716 -0.7722212 1.079419e-33 2.194346e-33 2.037024e-38 1.401298e-45
27.98373 -11.26092 -0.2721667 1.079419e-33 2.194346e-33 2.037024e-38 1.401298e-45
29.09188 -11.71483 0.2164665 1.079419e-33 2.194346e-33 2.037024e-38 1.401298e-45
28.88726 -11.63143 0.757687 1.079419e-33 2.194346e-33 2.037024e-38 1.401298e-45
28.90554 -11.63901 1.293409 1.079419e-33 2.194346e-33 2.037024e-38 1.401298e-45
29.3677 -11.82819 1.842857 1.079419e-33 2.194346e-33 2.037024e-38 1.401298e-45
39.84174 -16.12104 2.891573 1.079419e-33 2.194346e-33 2.037024e-38 1.401298e-45
41.17192 -16.66551 3.724824 1.079419e-33 2.194346e-33 2.037024e-38 1.401298e-45
33.5393 -13.53866 3.839872 1.079419e-33 2.194346e-33 2.037024e-38 1.401298e-45
21.84757 -8.747688 3.240877 1.079419e-33 2.194346e-33 2.037024e-38 1.401298e-45
22.03756 -8.82602 3.671696 1.079419e-33 2.194346e-33 2.037024e-38 1.401298e-45
22.22078 -8.900545 4.110379 1.079419e-33 2.194346e-33 2.037024e-38 1.401298e-45
22.46949 -9.003126 4.568665 1.079419e-33 2.194346e-33 2.037024e-38 1.401298e-45
23.50276 -9.426271 5.181498 1.079419e-33 2.194346e-33 2.037024e-38 1.401298e-45
22.88589 -9.174333 5.504888 1.079419e-33 2.194346e-33 2.037024e-38 1.401298e-45
30.36208 -12.23736 7.593779 1.079419e-33 2.194346e-33 2.037024e-38 1.401298e-45
22.84464 -9.156694 6.374745 1.079419e-33 2.194346e-33 2.037024e-38 1.401298e-45
27.74665 -11.16575 8.095326 1.079419e-33 2.194346e-33 2.037024e-38 1.401298e-45
27.91468 -11.23468 8.688619 1.079419e-33 2.194346e-33 2.037024e-38 1.401298e-45
26.09248 -10.48835 8.695291 1.079419e-33 2.194346e-33 2.037024e-38 1.401298e-45
22.89518 -9.178787 8.191463 1.079419e-33 2.194346e-33 2.037024e-38 1.401298e-45
25.16704 -10.10907 9.429717 1.079419e-33 2.194346e-33 2.037024e-38 1.401298e-45
29.88682 -12.04388 11.65589 1.079419e-33 2.194346e-33 2.037024e-38 1.401298e-45
26.39657 -10.61396 10.93717 1.079419e-33 2.194346e-33 2.037024e-38 1.401298e-45
14.23766 -6.103467 -1.100034 1.079419e-33 2.194346e-33 2.037024e-38 1.401298e-45
16.59164 -7.148746 -1.147307 1.079419e-33 2.194346e-33 2.037024e-38 1.401298e-45
19.28619 -8.346468 -1.143506 1.079419e-33 2.194346e-33 2.037024e-38 1.401298e-45
27.78575 -12.12282 -1.063258 1.079419e-33 2.194346e-33 2.037024e-38 1.401298e-45
27.86929 -12.16028 -0.5448884 1.079419e-33 2.194346e-33 2.037024e-38 1.401298e-45
28.62987 -12.49757 -0.04954954 1.079419e-33 2.194346e-33 2.037024e-38 1.401298e-45
28.46856 -12.42686 0.4909279 1.079419e-33 2.194346e-33 2.037024e-38 1.401298e-45
28.56388 -12.46925 1.025288 1.079419e-33 2.194346e-33 2.037024e-38 1.401298e-45
28.75967 -12.55655 1.565248 1.079419e-33 2.194346e-33 2.037024e-38 1.401298e-45
28.97507 -12.65163 2.113781 1.079419e-33 2.194346e-33 2.037024e-38 1.401298e-45
41.77379 -18.33974 3.404103 1.079419e-33 2.194346e-33 2.037024e-38 1.401298e-45
42.11193 -18.49006 4.221632 1.079419e-33 2.194346e-33 2.037024e-38 1.401298e-45
27.45286 -11.97602 3.604919 1.079419e-33 2.194346e-33 2.037024e-38 1.401298e-45
27.62524 -12.0529 4.14451 1.079419e-33 2.194346e-33 2.037024e-38 1.401298e-45
22.57413 -9.808743 3.986192 1.079419e-33 2.194346e-33 2.037024e-38 1.401298e-45
23.52708 -10.23285 4.562723 1.079419e-33 2.194346e-33 2.037024e-38 1.401298e-45
22.57285 -9.809049 4.846276 1.079419e-33 2.194346e-33 2.037024e-38 1.401298e-45
22.47268 -9.764366 5.260303 1.079419e-33 2.194346e-33 2.037024e-38 1.401298e-45
29.91078 -13.0701 7.868727 1.079419e-33 2.194346e-33 2.037024e-38 1.401298e-45
29.58364 -12.92386 8.375163 1.079419e-33 2.194346e-33 2.037024e-38 1.401298e-45
12.98975 -5.999986 -1.059288 1.079419e-33 2.194346e-33 2.037024e-38 1.401298e-45
15.12059 -7.023525 -1.121976 1.079419e-33 2.194346e-33 2.037024e-38 1.401298e-45
17.49013 -8.161175 -1.131948 1.079419e-33 2.194346e-33 2.037024e-38 1.401298e-45
20.77763 -9.740735 -1.147715 1.079419e-33 2.194346e-33 2.037024e-38 1.401298e-45
29.33544 -13.85284 -0.9305158 1.079419e-33 2.194346e-33 2.037024e-38 1.401298e-45
30.18987 -14.26281 -0.4113447 1.079419e-33 2.194346e-33 2.037024e-38 1.401298e-45
29.56767 -13.96405 0.1817035 1.079419e-33 2.194346e-33 2.037024e-38 1.401298e-45
29.45939 -13.91243 0.7457233 1.079419e-33 2.194346e-33 2.037024e-38 1.401298e-45
30.03548 -14.18987 1.31264 1.079419e-33 2.194346e-33 2.037024e-38 1.401298e-45
30.71099 -14.51419 1.904884 1.079419e-33 2.194346e-33 2.037024e-38 1.401298e-45
27.30591 -12.8789 3.888057 1.079419e-33 2.194346e-33 2.037024e-38 1.401298e-45
27.76622 -13.10038 4.47155 1.079419e-33 2.194346e-33 2.037024e-38 1.401298e-45
13.56444 -6.750649 -1.054643 1.079419e-33 2.194346e-33 2.037024e-38 1.401298e-45
16.03749 -8.028348 -1.133037 1.079419e-33 2.194346e-33 2.037024e-38 1.401298e-45
18.33021 -9.213039 -1.093057 1.079419e-33 2.194346e-33 2.037024e-38 1.401298e-45
34.95855 -17.80602 -1.001609 1.079419e-33 2.194346e-33 2.037024e-38 1.401298e-45
35.10825 -17.88395 -0.3291628 1.079419e-33 2.194346e-33 2.037024e-38 1.401298e-45
35.0793 -17.86842 0.3517903 1.079419e-33 2.194346e-33 2.037024e-38 1.401298e-45
35.18141 -17.92206 1.031342 1.079419e-33 2.194346e-33 2.037024e-38 1.401298e-45
45.01693 -23.00754 11.6932 1.079419e-33 2.194346e-33 2.037024e-38 1.401298e-45
45.88107 -23.45552 13.78022 1.079419e-33 2.194346e-33 2.037024e-38 1.401298e-45
12.40043 -6.60152 -1.022774 1.079419e-33 2.194346e-33 2.037024e-38 1.401298e-45
14.33789 -7.675826 -1.070449 1.079419e-33 2.194346e-33 2.037024e-38 1.401298e-45
16.86944 -9.080893 -1.117692 1.079419e-33 2.194346e-33 2.037024e-38 1.401298e-45
19.87613 -10.74893 -1.115746 1.079419e-33 2.194346e-33 2.037024e-38 1.401298e-45
23.59347 -12.81117 -1.057292 1.079419e-33 2.194346e-33 2.037024e-38 1.401298e-45
40.42181 -22.1475 -0.1594592 1.079419e-33 2.194346e-33 2.037024e-38 1.401298e-45
40.37292 -22.11995 0.6380688 1.079419e-33 2.194346e-33 2.037024e-38 1.401298e-45
24.43121 -13.27719 1.260662 1.079419e-33 2.194346e-33 2.037024e-38 1.401298e-45
24.41528 -13.26754 1.737974 1.079419e-33 2.194346e-33 2.037024e-38 1.401298e-45
24.4264 -13.27452 2.216539 1.079419e-33 2.194346e-33 2.037024e-38 1.401298e-45
19.23232 -10.39488 7.36474 1.079419e-33 2.194346e-33 2.037024e-38 1.401298e-45
18.75711 -10.1317 7.602096 1.079419e-33 2.194346e-33 2.037024e-38 1.401298e-45
13.16238 -7.516923 -1.057715 1.079419e-33 2.194346e-33 2.037024e-38 1.401298e-45
15.24819 -8.756014 -1.092271 1.079419e-33 2.194346e-33 2.037024e-38 1.401298e-45
17.68909 -10.20506 -1.08522 1.079419e-33 2.194346e-33 2.037024e-38 1.401298e-45
41.80967 -24.52657 0.1988364 1.079419e-33 2.194346e-33 2.037024e-38 1.401298e-45
44.54157 -26.1543 12.86761 1.079419e-33 2.194346e-33 2.037024e-38 1.401298e-45
12.03348 -7.316983 -1.030472 1.079419e-33 2.194346e-33 2.037024e-38 1.401298e-45
13.74493 -8.402446 -1.052573 1.079419e-33 2.194346e-33 2.037024e-38 1.401298e-45
16.58397 -10.20298 -1.155196 1.079419e-33 2.194346e-33 2.037024e-38 1.401298e-45
19.05872 -11.77401 -1.099183 1.079419e-33 2.194346e-33 2.037024e-38 1.401298e-45
32.13475 -20.0703 -0.6068571 1.079419e-33 2.194346e-33 2.037024e-38 1.401298e-45
32.42427 -20.25329 0.0390699 1.079419e-33 2.194346e-33 2.037024e-38 1.401298e-45
12.37899 -8.031657 -1.00406 1.079419e-33 2.194346e-33 2.037024e-38 1.401298e-45
14.1902 -9.257068 -1.016369 1.079419e-33 2.194346e-33 2.037024e-38 1.401298e-45
17.20812 -11.29738 -1.104363 1.079419e-33 2.194346e-33 2.037024e-38 1.401298e-45
32.93648 -21.93292 -0.3377019 1.079419e-33 2.194346e-33 2.037024e-38 1.401298e-45
32.61903 -21.71895 0.3525649 1.079419e-33 2.194346e-33 2.037024e-38 1.401298e-45
12.89775 -8.928414 -0.9997719 1.079419e-33 2.194346e-33 2.037024e-38 1.401298e-45
15.63431 -10.8987 -1.110709 1.079419e-33 2.194346e-33 2.037024e-38 1.401298e-45
17.67254 -12.36751 -1.021702 1.079419e-33 2.194346e-33 2.037024e-38 1.401298e-45
30.40691 -21.53848 -0.5816405 1.079419e-33 2.194346e-33 2.037024e-38 1.401298e-45
30.1401 -21.3465 0.07075094 1.079419e-33 2.194346e-33 2.037024e-38 1.401298e-45
30.43291 -21.55732 0.7055153 1.079419e-33 2.194346e-33 2.037024e-38 1.401298e-45
39.93755 -28.40409 2.308816 1.079419e-33 2.194346e-33 2.037024e-38 1.401298e-45
40.3261 -28.6842 3.179395 1.079419e-33 2.194346e-33 2.037024e-38 1.401298e-45
40.31337 -28.67489 4.037473 1.079419e-33 2.194346e-33 2.037024e-38 1.401298e-45
40.33709 -28.69261 4.900464 1.079419e-33 2.194346e-33 2.037024e-38 1.401298e-45
38.46012 -27.34433 10.55438 1.079419e-33 2.194346e-33 2.037024e-38 1.401298e-45
11.64923 -8.537212 -0.9629025 1.079419e-33 2.194346e-33 2.037024e-38 1.401298e-45
13.64536 -10.06492 -1.020414 1.079419e-33 2.194346e-33 2.037024e-38 1.401298e-45
18.32838 -13.65125 -0.9479075 1.079419e-33 2.194346e-33 2.037024e-38 1.401298e-45
29.2893 -22.04519 -0.8737459 1.079419e-33 2.194346e-33 2.037024e-38 1.401298e-45
29.69135 -22.35379 -0.2570604 1.079419e-33 2.194346e-33 2.037024e-38 1.401298e-45
29.79956 -22.43685 0.382854 1.079419e-33 2.194346e-33 2.037024e-38 1.401298e-45
39.88114 -30.16177 8.893682 1.079419e-33 2.194346e-33 2.037024e-38 1.401298e-45
37.86194 -28.61656 10.18349 1.079419e-33 2.194346e-33 2.037024e-38 1.401298e-45
12.39738 -9.679977 -1.00797 1.079419e-33 2.194346e-33 2.037024e-38 1.401298e-45
14.32595 -11.25038 -1.017802 1.079419e-33 2.194346e-33 2.037024e-38 1.401298e-45
17.88032 -14.14134 -1.141238 1.079419e-33 2.194346e-33 2.037024e-38 1.401298e-45
18.92763 -14.9937 -0.8524457 1.079419e-33 2.194346e-33 2.037024e-38 1.401298e-45
18.94985 -15.01254 -0.4375429 1.079419e-33 2.194346e-33 2.037024e-38 1.401298e-45
18.92723 -14.99443 -0.02008037 1.079419e-33 2.194346e-33 2.037024e-38 1.401298e-45
18.96956 -15.02859 0.3936516 1.079419e-33 2.194346e-33 2.037024e-38 1.401298e-45
18.95936 -15.02034 0.8095211 1.079419e-33 2.194346e-33 2.037024e-38 1.401298e-45
28.5995 -22.86536 1.342147 1.079419e-33 2.194346e-33 2.037024e-38 1.401298e-45
28.59854 -22.86496 1.974614 1.079419e-33 2.194346e-33 2.037024e-38 1.401298e-45
39.9422 -32.09655 4.146672 1.079419e-33 2.194346e-33 2.037024e-38 1.401298e-45
37.75612 -30.31951 6.507612 1.079419e-33 2.194346e-33 2.037024e-38 1.401298e-45
36.75274 -29.50391 7.187654 1.079419e-33 2.194346e-33 2.037024e-38 1.401298e-45
34.71799 -27.84954 10.00897 1.079419e-33 2.194346e-33 2.037024e-38 1.401298e-45
35.12439 -28.18324 13.41561 1.079419e-33 2.194346e-33 2.037024e-38 1.401298e-45
38.43815 -30.88033 15.52796 1.079419e-33 2.194346e-33 2.037024e-38 1.401298e-45
39.10056 -31.4202 16.73216 1.079419e-33 2.194346e-33 2.037024e-38 1.401298e-45
12.87365 -10.68309 -0.9953698 1.079419e-33 2.194346e-33 2.037024e-38 1.401298e-45
18.26602 -15.33804 -1.036729 1.079419e-33 2.194346e-33 2.037024e-38 1.401298e-45
28.62663 -24.28346 -0.9212456 1.079419e-33 2.194346e-33 2.037024e-38 1.401298e-45
29.02547 -24.62923 -0.2894904 1.079419e-33 2.194346e-33 2.037024e-38 1.401298e-45
28.95514 -24.56812 0.3702462 1.079419e-33 2.194346e-33 2.037024e-38 1.401298e-45
36.31723 -30.92708 3.513323 1.079419e-33 2.194346e-33 2.037024e-38 1.401298e-45
36.42921 -31.02452 4.352869 1.079419e-33 2.194346e-33 2.037024e-38 1.401298e-45
36.86857 -31.40434 6.084408 1.079419e-33 2.194346e-33 2.037024e-38 1.401298e-45
36.91488 -31.44577 6.941821 1.079419e-33 2.194346e-33 2.037024e-38 1.401298e-45
36.90005 -31.4331 8.651897 1.079419e-33 2.194346e-33 2.037024e-38 1.401298e-45
31.44603 -26.72534 9.721304 1.079419e-33 2.194346e-33 2.037024e-38 1.401298e-45
32.67225 -27.7858 11.63064 1.079419e-33 2.194346e-33 2.037024e-38 1.401298e-45
33.66641 -28.64473 13.59956 1.079419e-33 2.194346e-33 2.037024e-38 1.401298e-45
32.78524 -27.88478 14.07534 1.079419e-33 2.194346e-33 2.037024e-38 1.401298e-45
37.18428 -31.68387 16.78733 1.079419e-33 2.194346e-33 2.037024e-38 1.401298e-45
37.94976 -32.34604 18.07783 1.079419e-33 2.194346e-33 2.037024e-38 1.401298e-45
11.10603 -9.719183 -0.8838235 1.079419e-33 2.194346e-33 2.037024e-38 1.401298e-45
13.17973 -11.62 -0.9474387 1.079419e-33 2.194346e-33 2.037024e-38 1.401298e-45
9.099406 -7.881857 1.313838 1.079419e-33 2.194346e-33 2.037024e-38 1.401298e-45
35.0246 -31.64396 6.368332 1.079419e-33 2.194346e-33 2.037024e-38 1.401298e-45
35.1762 -31.78304 7.225507 1.079419e-33 2.194346e-33 2.037024e-38 1.401298e-45
35.98024 -32.5211 8.226646 1.079419e-33 2.194346e-33 2.037024e-38 1.401298e-45
30.13353 -27.1631 9.207429 1.079419e-33 2.194346e-33 2.037024e-38 1.401298e-45
30.29722 -27.31362 9.990301 1.079419e-33 2.194346e-33 2.037024e-38 1.401298e-45
32.44397 -29.28471 14.69648 1.079419e-33 2.194346e-33 2.037024e-38 1.401298e-45
31.96935 -28.85005 15.31726 1.079419e-33 2.194346e-33 2.037024e-38 1.401298e-45
31.29413 -28.23129 15.82606 1.079419e-33 2.194346e-33 2.037024e-38 1.401298e-45
36.75113 -33.23476 19.42617 1.079419e-33 2.194346e-33 2.037024e-38 1.401298e-45
36.58391 -33.08183 20.32207 1.079419e-33 2.194346e-33 2.037024e-38 1.401298e-45
29.73582 -28.39468 -0.3946857 1.079419e-33 2.194346e-33 2.037024e-38 1.401298e-45
9.545955 -8.78678 1.449536 1.079419e-33 2.194346e-33 2.037024e-38 1.401298e-45
9.545652 -8.786833 1.670112 1.079419e-33 2.194346e-33 2.037024e-38 1.401298e-45
9.543475 -8.78476 1.890796 1.079419e-33 2.194346e-33 2.037024e-38 1.401298e-45
9.537488 -8.779441 2.111643 1.079419e-33 2.194346e-33 2.037024e-38 1.401298e-45
30.30179 -28.94852 5.396153 1.079419e-33 2.194346e-33 2.037024e-38 1.401298e-45
28.77188 -27.46491 7.978578 1.079419e-33 2.194346e-33 2.037024e-38 1.401298e-45
29.26351 -27.94407 8.824396 1.079419e-33 2.194346e-33 2.037024e-38 1.401298e-45
30.66386 -29.30561 10.7403 1.079419e-33 2.194346e-33 2.037024e-38 1.401298e-45
30.42402 -29.07545 13.788 1.079419e-33 2.194346e-33 2.037024e-38 1.401298e-45
30.72921 -29.37261 15.54623 1.079419e-33 2.194346e-33 2.037024e-38 1.401298e-45
32.48174 -31.07614 18.15367 1.079419e-33 2.194346e-33 2.037024e-38 1.401298e-45
10.40712 -10.21049 -0.8615817 1.079419e-33 2.194346e-33 2.037024e-38 1.401298e-45
27.13705 -27.45549 -0.6402377 1.079419e-33 2.194346e-33 2.037024e-38 1.401298e-45
27.64068 -27.97419 0.009813832 1.079419e-33 2.194346e-33 2.037024e-38 1.401298e-45
29.64641 -30.04269 0.6673685 1.079419e-33 2.194346e-33 2.037024e-38 1.401298e-45
34.40387 -34.94757 2.313018 1.079419e-33 2.194346e-33 2.037024e-38 1.401298e-45
28.85303 -29.22946 5.671967 1.079419e-33 2.194346e-33 2.037024e-38 1.401298e-45
28.2468 -28.60586 6.987804 1.079419e-33 2.194346e-33 2.037024e-38 1.401298e-45
28.92456 -29.30976 12.35733 1.079419e-33 2.194346e-33 2.037024e-38 1.401298e-45
29.1025 -29.49304 13.20481 1.079419e-33 2.194346e-33 2.037024e-38 1.401298e-45
29.27479 -29.67121 14.06758 1.079419e-33 2.194346e-33 2.037024e-38 1.401298e-45
31.23505 -31.69604 17.54645 1.079419e-33 2.194346e-33 2.037024e-38 1.401298e-45
10.88603 -11.35055 -0.8767852 1.079419e-33 2.194346e-33 2.037024e-38 1.401298e-45
29.157 -31.32173 0.2917372 1.079419e-33 2.194346e-33 2.037024e-38 1.401298e-45
29.57264 -31.7764 1.03319 1.079419e-33 2.194346e-33 2.037024e-38 1.401298e-45
32.36636 -34.83109 2.685 1.079419e-33 2.194346e-33 2.037024e-38 1.401298e-45
33.03513 -35.56307 3.563323 1.079419e-33 2.194346e-33 2.037024e-38 1.401298e-45
27.10613 -29.08597 5.871013 1.079419e-33 2.194346e-33 2.037024e-38 1.401298e-45
27.98634 -30.04908 6.755527 1.079419e-33 2.194346e-33 2.037024e-38 1.401298e-45
27.42808 -29.43912 7.350652 1.079419e-33 2.194346e-33 2.037024e-38 1.401298e-45
28.08155 -30.15805 11.98456 1.079419e-33 2.194346e-33 2.037024e-38 1.401298e-45
28.86186 -31.01207 13.08588 1.079419e-33 2.194346e-33 2.037024e-38 1.401298e-45
29.30748 -31.50211 15.73534 1.079419e-33 2.194346e-33 2.037024e-38 1.401298e-45
9.829134 -10.82095 -0.8697528 1.079419e-33 2.194346e-33 2.037024e-38 1.401298e-45
11.43159 -12.68034 -0.8945557 1.079419e-33 2.194346e-33 2.037024e-38 1.401298e-45
28.81089 -32.84061 -0.8605192 1.079419e-33 2.194346e-33 2.037024e-38 1.401298e-45
32.57204 -37.20564 2.323073 1.079419e-33 2.194346e-33 2.037024e-38 1.401298e-45
28.01294 -31.92093 5.089629 1.079419e-33 2.194346e-33 2.037024e-38 1.401298e-45
28.85395 -32.90066 9.083539 1.079419e-33 2.194346e-33 2.037024e-38 1.401298e-45
28.69921 -32.72505 12.20669 1.079419e-33 2.194346e-33 2.037024e-38 1.401298e-45
28.13223 -32.06818 13.57361 1.079419e-33 2.194346e-33 2.037024e-38 1.401298e-45
10.12008 -11.84017 -0.8616222 1.079419e-33 2.194346e-33 2.037024e-38 1.401298e-45
11.3994 -13.41514 -0.8037437 1.079419e-33 2.194346e-33 2.037024e-38 1.401298e-45
30.84991 -37.35786 0.1948642 1.079419e-33 2.194346e-33 2.037024e-38 1.401298e-45
30.74052 -37.22324 1.034842 1.079419e-33 2.194346e-33 2.037024e-38 1.401298e-45
9.063964 -11.19883 -0.8457883 1.079419e-33 2.194346e-33 2.037024e-38 1.401298e-45
10.42206 -12.97519 -0.849149 1.079419e-33 2.194346e-33 2.037024e-38 1.401298e-45
11.55863 -14.46175 -0.7398829 1.079419e-33 2.194346e-33 2.037024e-38 1.401298e-45
30.28437 -38.95485 1.462494 1.079419e-33 2.194346e-33 2.037024e-38 1.401298e-45
9.258372 -12.17477 -0.8307866 1.079419e-33 2.194346e-33 2.037024e-38 1.401298e-45
10.38495 -13.74123 -0.7671786 1.079419e-33 2.194346e-33 2.037024e-38 1.401298e-45
12.17632 -16.24332 7.515564 1.079419e-33 2.194346e-33 2.037024e-38 1.401298e-45
8.53913 -11.90615 -0.881449 1.079419e-33 2.194346e-33 2.037024e-38 1.401298e-45
9.545967 -13.39781 -0.8308037 1.079419e-33 2.194346e-33 2.037024e-38 1.401298e-45
11.01614 -15.57529 -0.7968472 1.079419e-33 2.194346e-33 2.037024e-38 1.401298e-45
8.7601 -13.03807 -0.8848488 1.079419e-33 2.194346e-33 2.037024e-38 1.401298e-45
7.790107 -12.29782 -0.8731241 1.079419e-33 2.194346e-33 2.037024e-38 1.401298e-45
8.636538 -13.72592 -0.8080038 1.079419e-33 2.194346e-33 2.037024e-38 1.401298e-45
7.781994 -13.14508 -0.8359864 1.079419e-33 2.194346e-33 2.037024e-38 1.401298e-45
25.54134 -45.2094 0.128035 1.079419e-33 2.194346e-33 2.037024e-38 1.401298e-45
7.69382 -13.94234 -0.7783927 1.079419e-33 2.194346e-33 2.037024e-38 1.401298e-45
6.96032 -13.47917 -0.8270497 1.079419e-33 2.194346e-33 2.037024e-38 1.401298e-45
8.013433 -15.67681 -0.8175589 1.079419e-33 2.194346e-33 2.037024e-38 1.401298e-45
8.974103 -17.68959 3.767738 1.079419e-33 2.194346e-33 2.037024e-38 1.401298e-45
8.435507 -16.56621 3.9197 1.079419e-33 2.194346e-33 2.037024e-38 1.401298e-45
9.080489 -17.91502 5.597545 1.079419e-33 2.194346e-33 2.037024e-38 1.401298e-45
9.175993 -18.11691 6.394286 1.079419e-33 2.194346e-33 2.037024e-38 1.401298e-45
9.212654 -18.19441 6.796575 1.079419e-33 2.194346e-33 2.037024e-38 1.401298e-45
7.032694 -14.73238 -0.8276546 1.079419e-33 2.194346e-33 2.037024e-38 1.401298e-45
8.234981 -17.44402 -0.8273712 1.079419e-33 2.194346e-33 2.037024e-38 1.401298e-45
8.328772 -17.66424 3.554004 1.079419e-33 2.194346e-33 2.037024e-38 1.401298e-45
8.292582 -17.58443 3.884803 1.079419e-33 2.194346e-33 2.037024e-38 1.401298e-45
8.35436 -17.72524 4.254817 1.079419e-33 2.194346e-33 2.037024e-38 1.401298e-45
8.354486 -17.72496 4.603732 1.079419e-33 2.194346e-33 2.037024e-38 1.401298e-45
8.327171 -17.66439 4.941533 1.079419e-33 2.194346e-33 2.037024e-38 1.401298e-45
8.598186 -18.27774 5.442998 1.079419e-33 2.194346e-33 2.037024e-38 1.401298e-45
8.348438 -17.7151 5.66259 1.079419e-33 2.194346e-33 2.037024e-38 1.401298e-45
8.228499 -17.44407 5.944824 1.079419e-33 2.194346e-33 2.037024e-38 1.401298e-45
8.089899 -17.13276 6.207465 1.079419e-33 2.194346e-33 2.037024e-38 1.401298e-45
8.657895 -18.41472 6.977471 1.079419e-33 2.194346e-33 2.037024e-38 1.401298e-45
8.846922 -18.84765 9.132293 1.079419e-33 2.194346e-33 2.037024e-38 1.401298e-45
8.742898 -18.61319 9.444769 1.079419e-33 2.194346e-33 2.037024e-38 1.401298e-45
8.478015 -18.01475 9.579185 1.079419e-33 2.194346e-33 2.037024e-38 1.401298e-45
6.026635 -13.51398 -0.7853267 1.079419e-33 2.194346e-33 2.037024e-38 1.401298e-45
6.982099 -15.85094 -0.7914892 1.079419e-33 2.194346e-33 2.037024e-38 1.401298e-45
9.481174 -21.96965 1.840502 1.079419e-33 2.194346e-33 2.037024e-38 1.401298e-45
9.489308 -21.98958 2.256647 1.079419e-33 2.194346e-33 2.037024e-38 1.401298e-45
9.494817 -22.00328 2.673903 1.079419e-33 2.194346e-33 2.037024e-38 1.401298e-45
9.493308 -22.00051 3.09109 1.079419e-33 2.194346e-33 2.037024e-38 1.401298e-45
8.055355 -18.48726 3.816962 1.079419e-33 2.194346e-33 2.037024e-38 1.401298e-45
8.017076 -18.39281 4.157164 1.079419e-33 2.194346e-33 2.037024e-38 1.401298e-45
8.118543 -18.64362 4.925243 1.079419e-33 2.194346e-33 2.037024e-38 1.401298e-45
8.017282 -18.39645 5.234471 1.079419e-33 2.194346e-33 2.037024e-38 1.401298e-45
7.16988 -16.33238 8.498931 1.079419e-33 2.194346e-33 2.037024e-38 1.401298e-45
8.282466 -19.05849 10.17785 1.079419e-33 2.194346e-33 2.037024e-38 1.401298e-45
8.073585 -18.54663 10.35384 1.079419e-33 2.194346e-33 2.037024e-38 1.401298e-45
8.852148 -20.45616 11.79019 1.079419e-33 2.194346e-33 2.037024e-38 1.401298e-45
5.890968 -14.38336 -0.7428062 1.079419e-33 2.194346e-33 2.037024e-38 1.401298e-45
6.501912 -16.01294 -0.6385589 1.079419e-33 2.194346e-33 2.037024e-38 1.401298e-45
7.480147 -18.62371 -0.5559626 1.079419e-33 2.194346e-33 2.037024e-38 1.401298e-45
7.312144 -18.17668 0.1615342 1.079419e-33 2.194346e-33 2.037024e-38 1.401298e-45
7.347491 -18.27242 0.4981483 1.079419e-33 2.194346e-33 2.037024e-38 1.401298e-45
7.499197 -18.6801 0.8352138 1.079419e-33 2.194346e-33 2.037024e-38 1.401298e-45
7.833119 -19.57316 1.557044 1.079419e-33 2.194346e-33 2.037024e-38 1.401298e-45
8.080859 -20.23445 1.953486 1.079419e-33 2.194346e-33 2.037024e-38 1.401298e-45
8.234559 -20.64588 2.358708 1.079419e-33 2.194346e-33 2.037024e-38 1.401298e-45
8.816448 -22.19798 2.876627 1.079419e-33 2.194346e-33 2.037024e-38 1.401298e-45
8.828279 -22.23435 4.137001 1.079419e-33 2.194346e-33 2.037024e-38 1.401298e-45
7.536757 -18.80449 10.58804 1.079419e-33 2.194346e-33 2.037024e-38 1.401298e-45
7.372466 -18.36828 10.78961 1.079419e-33 2.194346e-33 2.037024e-38 1.401298e-45
7.140743 -17.74915 10.87624 1.079419e-33 2.194346e-33 2.037024e-38 1.401298e-45
7.460501 -18.60536 11.79759 1.079419e-33 2.194346e-33 2.037024e-38 1.401298e-45
5.621577 -14.9817 -0.6569605 1.079419e-33 2.194346e-33 2.037024e-38 1.401298e-45
6.41671 -17.30645 -0.5921486 1.079419e-33 2.194346e-33 2.037024e-38 1.401298e-45
6.692304 -18.11391 0.005170295 1.079419e-33 2.194346e-33 2.037024e-38 1.401298e-45
7.396265 -20.17994 1.754075 1.079419e-33 2.194346e-33 2.037024e-38 1.401298e-45
7.539443 -20.59919 2.150437 1.079419e-33 2.194346e-33 2.037024e-38 1.401298e-45
6.576457 -17.78311 2.322445 1.079419e-33 2.194346e-33 2.037024e-38 1.401298e-45
7.058896 -19.22361 12.27081 1.079419e-33 2.194346e-33 2.037024e-38 1.401298e-45
5.963396 -16.02053 12.86319 1.079419e-33 2.194346e-33 2.037024e-38 1.401298e-45
5.845562 -15.67638 13.04498 1.079419e-33 2.194346e-33 2.037024e-38 1.401298e-45
5.416877 -15.90014 -0.5956742 1.079419e-33 2.194346e-33 2.037024e-38 1.401298e-45
6.152728 -18.28023 -0.1624158 1.079419e-33 2.194346e-33 2.037024e-38 1.401298e-45
6.353754 -18.9339 0.8350798 1.079419e-33 2.194346e-33 2.037024e-38 1.401298e-45
6.62857 -19.82665 1.551853 1.079419e-33 2.194346e-33 2.037024e-38 1.401298e-45
6.893611 -20.68229 1.95397 1.079419e-33 2.194346e-33 2.037024e-38 1.401298e-45
6.110443 -18.1838 11.77692 1.079419e-33 2.194346e-33 2.037024e-38 1.401298e-45
5.390699 -15.86272 13.74804 1.079419e-33 2.194346e-33 2.037024e-38 1.401298e-45
5.21785 -16.98951 -0.535903 1.079419e-33 2.194346e-33 2.037024e-38 1.401298e-45
5.853915 -19.28164 -0.3917192 1.079419e-33 2.194346e-33 2.037024e-38 1.401298e-45
5.743062 -18.88334 0.3230225 1.079419e-33 2.194346e-33 2.037024e-38 1.401298e-45
5.518916 -18.11972 12.30686 1.079419e-33 2.194346e-33 2.037024e-38 1.401298e-45
5.378473 -17.61654 12.43179 1.079419e-33 2.194346e-33 2.037024e-38 1.401298e-45
5.377972 -17.61531 12.87989 1.079419e-33 2.194346e-33 2.037024e-38 1.401298e-45
4.951114 -16.08204 13.58415 1.079419e-33 2.194346e-33 2.037024e-38 1.401298e-45
4.793008 -17.44394 -0.4075364 1.079419e-33 2.194346e-33 2.037024e-38 1.401298e-45
5.184251 -19.03468 -0.1922117 1.079419e-33 2.194346e-33 2.037024e-38 1.401298e-45
6.031332 -22.47678 -0.00271729 1.079419e-33 2.194346e-33 2.037024e-38 1.401298e-45
5.399128 -19.91672 2.261646 1.079419e-33 2.194346e-33 2.037024e-38 1.401298e-45
5.044142 -18.48035 2.839181 1.079419e-33 2.194346e-33 2.037024e-38 1.401298e-45
5.242209 -19.28539 3.269753 1.079419e-33 2.194346e-33 2.037024e-38 1.401298e-45
4.838998 -17.64573 3.398816 1.079419e-33 2.194346e-33 2.037024e-38 1.401298e-45
6.136538 -22.93135 5.812802 1.079419e-33 2.194346e-33 2.037024e-38 1.401298e-45
5.019349 -18.4148 11.73638 1.079419e-33 2.194346e-33 2.037024e-38 1.401298e-45
4.980039 -18.25488 12.08087 1.079419e-33 2.194346e-33 2.037024e-38 1.401298e-45
5.011801 -18.38693 12.61103 1.079419e-33 2.194346e-33 2.037024e-38 1.401298e-45
4.873668 -17.82734 12.70323 1.079419e-33 2.194346e-33 2.037024e-38 1.401298e-45
4.814097 -17.5856 12.99414 1.079419e-33 2.194346e-33 2.037024e-38 1.401298e-45
4.107146 -16.7539 -0.1928396 1.079419e-33 2.194346e-33 2.037024e-38 1.401298e-45
4.367309 -17.96257 0.04289494 1.079419e-33 2.194346e-33 2.037024e-38 1.401298e-45
5.416103 -22.84412 2.23203 1.079419e-33 2.194346e-33 2.037024e-38 1.401298e-45
5.387299 -22.71217 2.6319 1.079419e-33 2.194346e-33 2.037024e-38 1.401298e-45
5.428061 -22.90514 3.05728 1.079419e-33 2.194346e-33 2.037024e-38 1.401298e-45
5.295917 -22.29314 3.403971 1.079419e-33 2.194346e-33 2.037024e-38 1.401298e-45
5.285849 -22.24869 3.801634 1.079419e-33 2.194346e-33 2.037024e-38 1.401298e-45
5.424652 -22.89439 4.298703 1.079419e-33 2.194346e-33 2.037024e-38 1.401298e-45
5.34879 -22.54486 4.659895 1.079419e-33 2.194346e-33 2.037024e-38 1.401298e-45
5.347555 -22.53732 5.07234 1.079419e-33 2.194346e-33 2.037024e-38 1.401298e-45
4.392744 -18.12296 8.875134 1.079419e-33 2.194346e-33 2.037024e-38 1.401298e-45
4.655733 -19.36087 12.4411 1.079419e-33 2.194346e-33 2.037024e-38 1.401298e-45
4.13619 -16.94605 12.26311 1.079419e-33 2.194346e-33 2.037024e-38 1.401298e-45
3.794194 -17.84025 0.213112 1.079419e-33 2.194346e-33 2.037024e-38 1.401298e-45
4.813232 -23.37045 2.877173 1.079419e-33 2.194346e-33 2.037024e-38 1.401298e-45
4.811907 -23.36467 3.294612 1.079419e-33 2.194346e-33 2.037024e-38 1.401298e-45
4.830082 -23.46772 3.725808 1.079419e-33 2.194346e-33 2.037024e-38 1.401298e-45
4.669262 -22.59921 4.032088 1.079419e-33 2.194346e-33 2.037024e-38 1.401298e-45
4.771388 -23.15558 4.525979 1.079419e-33 2.194346e-33 2.037024e-38 1.401298e-45
4.760955 -23.10138 4.937981 1.079419e-33 2.194346e-33 2.037024e-38 1.401298e-45
4.710561 -22.82812 5.309087 1.079419e-33 2.194346e-33 2.037024e-38 1.401298e-45
3.62923 -17.01126 11.60644 1.079419e-33 2.194346e-33 2.037024e-38 1.401298e-45
3.510123 -19.47598 0.3168795 1.079419e-33 2.194346e-33 2.037024e-38 1.401298e-45
5.339408 -31.31235 0.4548177 1.079419e-33 2.194346e-33 2.037024e-38 1.401298e-45
7.24824 -43.66036 1.010788 1.079419e-33 2.194346e-33 2.037024e-38 1.401298e-45
7.200887 -43.35764 1.77651 1.079419e-33 2.194346e-33 2.037024e-38 1.401298e-45
7.136664 -42.95229 2.528363 1.079419e-33 2.194346e-33 2.037024e-38 1.401298e-45
3.960605 -22.4199 4.599022 1.079419e-33 2.194346e-33 2.037024e-38 1.401298e-45
3.973065 -22.50101 5.020562 1.079419e-33 2.194346e-33 2.037024e-38 1.401298e-45
2.688309 -17.60714 0.2294652 1.079419e-33 2.194346e-33 2.037024e-38 1.401298e-45
2.829028 -18.73916 0.5099154 1.079419e-33 2.194346e-33 2.037024e-38 1.401298e-45
2.830184 -18.75395 0.8394432 1.079419e-33 2.194346e-33 2.037024e-38 1.401298e-45
2.833037 -18.77383 1.169412 1.079419e-33 2.194346e-33 2.037024e-38 1.401298e-45
2.8342 -18.78856 1.500139 1.079419e-33 2.194346e-33 2.037024e-38 1.401298e-45
2.833338 -18.78711 1.830981 1.079419e-33 2.194346e-33 2.037024e-38 1.401298e-45
2.833236 -18.78969 2.162417 1.079419e-33 2.194346e-33 2.037024e-38 1.401298e-45
2.833897 -18.79627 2.495047 1.079419e-33 2.194346e-33 2.037024e-38 1.401298e-45
2.829675 -18.76756 2.825366 1.079419e-33 2.194346e-33 2.037024e-38 1.401298e-45
2.829009 -18.76299 3.158556 1.079419e-33 2.194346e-33 2.037024e-38 1.401298e-45
2.82917 -18.76141 3.49339 1.079419e-33 2.194346e-33 2.037024e-38 1.401298e-45
2.827641 -18.75467 3.828882 1.079419e-33 2.194346e-33 2.037024e-38 1.401298e-45
2.831549 -18.79096 4.17317 1.079419e-33 2.194346e-33 2.037024e-38 1.401298e-45
2.830164 -18.78204 4.512358 1.079419e-33 2.194346e-33 2.037024e-38 1.401298e-45
2.828148 -18.76704 4.85205 1.079419e-33 2.194346e-33 2.037024e-38 1.401298e-45
2.250045 -18.46509 0.3559923 1.079419e-33 2.194346e-33 2.037024e-38 1.401298e-45
3.625972 -32.9866 0.4279341 1.079419e-33 2.194346e-33 2.037024e-38 1.401298e-45
3.699333 -33.75771 1.006385 1.079419e-33 2.194346e-33 2.037024e-38 1.401298e-45
4.093766 -37.93319 1.672189 1.079419e-33 2.194346e-33 2.037024e-38 1.401298e-45
4.335865 -40.49311 2.42795 1.079419e-33 2.194346e-33 2.037024e-38 1.401298e-45
6.317526 -61.42261 5.325546 1.079419e-33 2.194346e-33 2.037024e-38 1.401298e-45
2.803406 -24.33583 3.574086 1.079419e-33 2.194346e-33 2.037024e-38 1.401298e-45
2.795889 -24.26718 3.997772 1.079419e-33 2.194346e-33 2.037024e-38 1.401298e-45
2.67667 -23.02278 5.499852 1.079419e-33 2.194346e-33 2.037024e-38 1.401298e-45
2.592 -22.13357 5.730148 1.079419e-33 2.194346e-33 2.037024e-38 1.401298e-45
2.599616 -22.21218 6.155699 1.079419e-33 2.194346e-33 2.037024e-38 1.401298e-45
1.655058 -17.79473 0.2244717 1.079419e-33 2.194346e-33 2.037024e-38 1.401298e-45
2.708915 -34.01664 0.7078806 1.079419e-33 2.194346e-33 2.037024e-38 1.401298e-45
2.709623 -34.03625 1.303077 1.079419e-33 2.194346e-33 2.037024e-38 1.401298e-45
2.712518 -34.08601 1.899846 1.079419e-33 2.194346e-33 2.037024e-38 1.401298e-45
2.119742 -24.98934 2.974958 1.079419e-33 2.194346e-33 2.037024e-38 1.401298e-45
2.125259 -25.07071 3.423186 1.079419e-33 2.194346e-33 2.037024e-38 1.401298e-45
1.964499 -22.60552 3.584723 1.079419e-33 2.194346e-33 2.037024e-38 1.401298e-45
1.951174 -22.39855 3.95877 1.079419e-33 2.194346e-33 2.037024e-38 1.401298e-45
2.103007 -24.76154 4.712582 1.079419e-33 2.194346e-33 2.037024e-38 1.401298e-45
2.041531 -23.81257 5.426688 1.079419e-33 2.194346e-33 2.037024e-38 1.401298e-45
1.915899 -21.89033 5.867002 1.079419e-33 2.194346e-33 2.037024e-38 1.401298e-45
1.82405 -20.48232 5.931379 1.079419e-33 2.194346e-33 2.037024e-38 1.401298e-45
1.896767 -21.6317 7.83851 1.079419e-33 2.194346e-33 2.037024e-38 1.401298e-45
1.786125 -19.93106 8.0766 1.079419e-33 2.194346e-33 2.037024e-38 1.401298e-45
1.763108 -19.58056 8.339998 1.079419e-33 2.194346e-33 2.037024e-38 1.401298e-45
1.526983 -15.99234 11.61091 1.079419e-33 2.194346e-33 2.037024e-38 1.401298e-45
1.07219 -16.06758 0.1597932 1.079419e-33 2.194346e-33 2.037024e-38 1.401298e-45
1.178731 -19.06537 0.3364474 1.079419e-33 2.194346e-33 2.037024e-38 1.401298e-45
1.721472 -34.30738 1.004358 1.079419e-33 2.194346e-33 2.037024e-38 1.401298e-45
1.569898 -30.05531 1.528851 1.079419e-33 2.194346e-33 2.037024e-38 1.401298e-45
1.72031 -34.3069 2.20322 1.079419e-33 2.194346e-33 2.037024e-38 1.401298e-45
1.851666 -38.0027 2.997672 1.079419e-33 2.194346e-33 2.037024e-38 1.401298e-45
1.852039 -38.0317 3.665923 1.079419e-33 2.194346e-33 2.037024e-38 1.401298e-45
1.850097 -37.99951 4.33147 1.079419e-33 2.194346e-33 2.037024e-38 1.401298e-45
1.309431 -22.80875 3.401949 1.079419e-33 2.194346e-33 2.037024e-38 1.401298e-45
1.286937 -22.18829 3.729223 1.079419e-33 2.194346e-33 2.037024e-38 1.401298e-45
1.300129 -22.57304 4.17755 1.079419e-33 2.194346e-33 2.037024e-38 1.401298e-45
1.298052 -22.56041 5.801543 1.079419e-33 2.194346e-33 2.037024e-38 1.401298e-45
1.304311 -22.74574 6.257799 1.079419e-33 2.194346e-33 2.037024e-38 1.401298e-45
1.215616 -20.24588 6.054033 1.079419e-33 2.194346e-33 2.037024e-38 1.401298e-45
1.208429 -20.06758 6.383499 1.079419e-33 2.194346e-33 2.037024e-38 1.401298e-45
1.19536 -19.70218 6.656013 1.079419e-33 2.194346e-33 2.037024e-38 1.401298e-45
1.253583 -21.36795 7.540213 1.079419e-33 2.194346e-33 2.037024e-38 1.401298e-45
1.170853 -19.11603 9.519618 1.079419e-33 2.194346e-33 2.037024e-38 1.401298e-45
1.132939 -18.07495 10.21842 1.079419e-33 2.194346e-33 2.037024e-38 1.401298e-45
0.6090324 -17.96159 0.2177328 1.079419e-33 2.194346e-33 2.037024e-38 1.401298e-45
0.6276065 -20.9923 0.452523 1.079419e-33 2.194346e-33 2.037024e-38 1.401298e-45
0.6951962 -32.19813 0.7222201 1.079419e-33 2.194346e-33 2.037024e-38 1.401298e-45
0.6944585 -32.15714 1.283798 1.079419e-33 2.194346e-33 2.037024e-38 1.401298e-45
0.6756408 -29.0688 1.764052 1.079419e-33 2.194346e-33 2.037024e-38 1.401298e-45
0.6791163 -29.85052 2.306313 1.079419e-33 2.194346e-33 2.037024e-38 1.401298e-45
0.6788559 -29.83262 2.827675 1.079419e-33 2.194346e-33 2.037024e-38 1.401298e-45
0.6782755 -29.83666 3.351223 1.079419e-33 2.194346e-33 2.037024e-38 1.401298e-45
0.6309378 -22.0373 3.124282 1.079419e-33 2.194346e-33 2.037024e-38 1.401298e-45
0.6342039 -22.60275 3.577679 1.079419e-33 2.194346e-33 2.037024e-38 1.401298e-45
0.6071092 -19.20166 9.351706 1.079419e-33 2.194346e-33 2.037024e-38 1.401298e-45
0.1261439 -16.07268 0.1587756 1.079419e-33 2.194346e-33 2.037024e-38 1.401298e-45
0.04558267 -19.51232 0.3199328 1.079419e-33 2.194346e-33 2.037024e-38 1.401298e-45
-0.2963894 -34.21067 1.002331 1.079419e-33 2.194346e-33 2.037024e-38 1.401298e-45
-0.3028767 -34.46524 1.604055 1.079419e-33 2.194346e-33 2.037024e-38 1.401298e-45
-0.3034 -34.43934 2.205324 1.079419e-33 2.194346e-33 2.037024e-38 1.401298e-45
-0.3162194 -34.98196 2.836115 1.079419e-33 2.194346e-33 2.037024e-38 1.401298e-45
-0.3176293 -35.00449 3.450792 1.079419e-33 2.194346e-33 2.037024e-38 1.401298e-45
-0.3151605 -34.89631 4.056193 1.079419e-33 2.194346e-33 2.037024e-38 1.401298e-45
-0.0670733 -24.23887 3.550076 1.079419e-33 2.194346e-33 2.037024e-38 1.401298e-45
-0.01415002 -21.78455 6.84049 1.079419e-33 2.194346e-33 2.037024e-38 1.401298e-45
-0.01766185 -21.78098 10.7022 1.079419e-33 2.194346e-33 2.037024e-38 1.401298e-45
0.04317671 -19.19872 9.956683 1.079419e-33 2.194346e-33 2.037024e-38 1.401298e-45
0.09773666 -16.803 11.10113 1.079419e-33 2.194346e-33 2.037024e-38 1.401298e-45
-0.4399219 -17.74741 0.2248569 1.079419e-33 2.194346e-33 2.037024e-38 1.401298e-45
-1.132145 -30.82544 0.731769 1.079419e-33 2.194346e-33 2.037024e-38 1.401298e-45
-1.159026 -31.3144 1.274794 1.079419e-33 2.194346e-33 2.037024e-38 1.401298e-45
-1.156109 -31.24533 1.820546 1.079419e-33 2.194346e-33 2.037024e-38 1.401298e-45
-1.137126 -30.87706 2.35114 1.079419e-33 2.194346e-33 2.037024e-38 1.401298e-45
-1.298364 -33.90856 3.078085 1.079419e-33 2.194346e-33 2.037024e-38 1.401298e-45
-1.292173 -33.78753 3.664106 1.079419e-33 2.194346e-33 2.037024e-38 1.401298e-45
-1.156652 -31.22065 4.011637 1.079419e-33 2.194346e-33 2.037024e-38 1.401298e-45
-0.5046321 -18.92067 3.159679 1.079419e-33 2.194346e-33 2.037024e-38 1.401298e-45
-0.6166726 -21.01797 3.771953 1.079419e-33 2.194346e-33 2.037024e-38 1.401298e-45
-0.6094434 -20.8675 4.12413 1.079419e-33 2.194346e-33 2.037024e-38 1.401298e-45
-1.121853 -30.39038 12.98919 1.079419e-33 2.194346e-33 2.037024e-38 1.401298e-45
-1.060599 -29.10902 18.86503 1.079419e-33 2.194346e-33 2.037024e-38 1.401298e-45
-0.8203956 -16.05275 0.1561262 1.079419e-33 2.194346e-33 2.037024e-38 1.401298e-45
-1.126859 -19.78116 0.3072908 1.079419e-33 2.194346e-33 2.037024e-38 1.401298e-45
-1.885388 -29.00741 0.4922481 1.079419e-33 2.194346e-33 2.037024e-38 1.401298e-45
-1.892843 -29.09105 1.000241 1.079419e-33 2.194346e-33 2.037024e-38 1.401298e-45
-1.899795 -29.16655 1.511034 1.079419e-33 2.194346e-33 2.037024e-38 1.401298e-45
-1.898762 -29.14325 2.021409 1.079419e-33 2.194346e-33 2.037024e-38 1.401298e-45
-1.899597 -29.15087 2.533121 1.079419e-33 2.194346e-33 2.037024e-38 1.401298e-45
-1.907288 -29.23898 3.051749 1.079419e-33 2.194346e-33 2.037024e-38 1.401298e-45
-1.905818 -29.20858 3.564274 1.079419e-33 2.194346e-33 2.037024e-38 1.401298e-45
-1.904005 -29.18914 4.07854 1.079419e-33 2.194346e-33 2.037024e-38 1.401298e-45
-1.902645 -29.16065 4.592862 1.079419e-33 2.194346e-33 2.037024e-38 1.401298e-45
-1.18593 -20.44841 3.88394 1.079419e-33 2.194346e-33 2.037024e-38 1.401298e-45
-1.188305 -20.474 4.254072 1.079419e-33 2.194346e-33 2.037024e-38 1.401298e-45
-0.9220834 -17.15764 10.94019 1.079419e-33 2.194346e-33 2.037024e-38 1.401298e-45
-1.892334 -28.85631 18.39793 1.079419e-33 2.194346e-33 2.037024e-38 1.401298e-45
-1.160041 -14.80886 0.0884537 1.079419e-33 2.194346e-33 2.037024e-38 1.401298e-45
-1.382528 -16.78788 0.2622406 1.079419e-33 2.194346e-33 2.037024e-38 1.401298e-45
-2.539579 -27.11051 0.2850704 1.079419e-33 2.194346e-33 2.037024e-38 1.401298e-45
-2.663864 -28.21126 0.7516431 1.079419e-33 2.194346e-33 2.037024e-38 1.401298e-45
-2.748083 -28.96661 1.253696 1.079419e-33 2.194346e-33 2.037024e-38 1.401298e-45
-2.753105 -28.97932 4.321837 1.079419e-33 2.194346e-33 2.037024e-38 1.401298e-45
-2.752649 -28.96579 4.836703 1.079419e-33 2.194346e-33 2.037024e-38 1.401298e-45
-1.769907 -20.20684 4.03863 1.079419e-33 2.194346e-33 2.037024e-38 1.401298e-45
-1.735096 -19.89656 4.350113 1.079419e-33 2.194346e-33 2.037024e-38 1.401298e-45
-2.745312 -28.89315 6.387992 1.079419e-33 2.194346e-33 2.037024e-38 1.401298e-45
-2.742855 -28.86341 6.908554 1.079419e-33 2.194346e-33 2.037024e-38 1.401298e-45
-1.677189 -19.36269 6.403186 1.079419e-33 2.194346e-33 2.037024e-38 1.401298e-45
-2.764397 -29.03264 9.65311 1.079419e-33 2.194346e-33 2.037024e-38 1.401298e-45
-2.759584 -28.9781 10.75625 1.079419e-33 2.194346e-33 2.037024e-38 1.401298e-45
