# .PCD v.7 - Point Cloud Data file format
FIELDS x y z normal_x normal_y normal_z curvature
SIZE 4 4 4 4 4 4 4
TYPE F F F F F F F
COUNT 1 1 1 1 1 1 1
WIDTH 591
HEIGHT 1
VIEWPOINT 0 0 0 1 0 0 0
POINTS 591
DATA ascii
-4.490127 1.367255 4.232141 1.079419e-33 2.194346e-33 2.037024e-38 1.401298e-45
-3.868214 1.196846 3.940744 1.079419e-33 2.194346e-33 2.037024e-38 1.401298e-45
-4.161859 1.277578 4.25967 1.079419e-33 2.194346e-33 2.037024e-38 1.401298e-45
-4.351259 1.329105 4.521322 1.079419e-33 2.194346e-33 2.037024e-38 1.401298e-45
-3.947721 1.218977 4.349948 1.079419e-33 2.194346e-33 2.037024e-38 1.401298e-45
-3.821549 1.183555 4.375847 1.079419e-33 2.194346e-33 2.037024e-38 1.401298e-45
-3.832947 1.186845 4.50892 1.079419e-33 2.194346e-33 2.037024e-38 1.401298e-45
-3.877779 1.198806 4.674911 1.079419e-33 2.194346e-33 2.037024e-38 1.401298e-45
-3.542193 1.107433 4.515748 1.079419e-33 2.194346e-33 2.037024e-38 1.401298e-45
-3.489709 1.093147 4.594826 1.079419e-33 2.194346e-33 2.037024e-38 1.401298e-45
-3.385159 1.064325 4.62634 1.079419e-33 2.194346e-33 2.037024e-38 1.401298e-45
-3.57046 1.11492 4.93477 1.079419e-33 2.194346e-33 2.037024e-38 1.401298e-45
-3.850986 1.191876 5.355127 1.079419e-33 2.194346e-33 2.037024e-38 1.401298e-45
-4.022404 1.238824 5.687781 1.079419e-33 2.194346e-33 2.037024e-38 1.401298e-45
-6.10704 1.810234 8.092147 1.079419e-33 2.194346e-33 2.037024e-38 1.401298e-45
-5.789063 1.722816 7.991169 1.079419e-33 2.194346e-33 2.037024e-38 1.401298e-45
-5.70975 1.700772 8.14856 1.079419e-33 2.194346e-33 2.037024e-38 1.401298e-45
-5.068043 1.525219 7.87862 1.079419e-33 2.194346e-33 2.037024e-38 1.401298e-45
-4.981859 1.50182 8.017112 1.079419e-33 2.194346e-33 2.037024e-38 1.401298e-45
-3.129129 0.9945656 5.814464 1.079419e-33 2.194346e-33 2.037024e-38 1.401298e-45
-3.017693 0.9639983 5.839414 1.079419e-33 2.194346e-33 2.037024e-38 1.401298e-45
-2.953362 0.9463904 5.926592 1.079419e-33 2.194346e-33 2.037024e-38 1.401298e-45
-1.857066 0.6462438 4.489348 1.079419e-33 2.194346e-33 2.037024e-38 1.401298e-45
-1.819396 0.6356733 4.564629 1.079419e-33 2.194346e-33 2.037024e-38 1.401298e-45
-1.66993 0.594537 4.46351 1.079419e-33 2.194346e-33 2.037024e-38 1.401298e-45
-1.65185 0.5897134 4.570067 1.079419e-33 2.194346e-33 2.037024e-38 1.401298e-45
-1.631831 0.5837917 4.677067 1.079419e-33 2.194346e-33 2.037024e-38 1.401298e-45
-1.569618 0.5668765 4.715064 1.079419e-33 2.194346e-33 2.037024e-38 1.401298e-45
-1.534857 0.5571821 4.804438 1.079419e-33 2.194346e-33 2.037024e-38 1.401298e-45
-1.524542 0.5545961 4.946577 1.079419e-33 2.194346e-33 2.037024e-38 1.401298e-45
-0.7836685 0.3521647 3.610534 1.079419e-33 2.194346e-33 2.037024e-38 1.401298e-45
-0.7686507 0.3474947 3.696278 1.079419e-33 2.194346e-33 2.037024e-38 1.401298e-45
-1.11862 0.4435377 4.597916 1.079419e-33 2.194346e-33 2.037024e-38 1.401298e-45
-1.027092 0.4187506 4.553518 1.079419e-33 2.194346e-33 2.037024e-38 1.401298e-45
-0.6421868 0.3133693 3.788994 1.079419e-33 2.194346e-33 2.037024e-38 1.401298e-45
-0.9282355 0.3911038 4.662304 1.079419e-33 2.194346e-33 2.037024e-38 1.401298e-45
-0.8836601 0.3789457 4.734218 1.079419e-33 2.194346e-33 2.037024e-38 1.401298e-45
-0.5665608 0.2919438 4.035087 1.079419e-33 2.194346e-33 2.037024e-38 1.401298e-45
-0.4674107 0.2647995 3.912161 1.079419e-33 2.194346e-33 2.037024e-38 1.401298e-45
-0.7283508 0.3365842 4.918274 1.079419e-33 2.194346e-33 2.037024e-38 1.401298e-45
-0.5920349 0.2994863 4.700793 1.079419e-33 2.194346e-33 2.037024e-38 1.401298e-45
-0.5454931 0.2864518 4.777643 1.079419e-33 2.194346e-33 2.037024e-38 1.401298e-45
-0.419073 0.2516765 4.554502 1.079419e-33 2.194346e-33 2.037024e-38 1.401298e-45
-0.3501272 0.2333415 4.531752 1.079419e-33 2.194346e-33 2.037024e-38 1.401298e-45
-0.2812503 0.2139407 4.507653 1.079419e-33 2.194346e-33 2.037024e-38 1.401298e-45
-0.3724944 0.2395379 5.254877 1.079419e-33 2.194346e-33 2.037024e-38 1.401298e-45
-0.7047464 0.3300894 7.419734 1.079419e-33 2.194346e-33 2.037024e-38 1.401298e-45
-0.5730438 0.2942475 7.302643 1.079419e-33 2.194346e-33 2.037024e-38 1.401298e-45
-0.1710859 0.1836991 5.385247 1.079419e-33 2.194346e-33 2.037024e-38 1.401298e-45
-0.02295555 0.1432369 4.852069 1.079419e-33 2.194346e-33 2.037024e-38 1.401298e-45
0.05080821 0.1237344 4.791501 1.079419e-33 2.194346e-33 2.037024e-38 1.401298e-45
0.1138909 0.1062531 4.798982 1.079419e-33 2.194346e-33 2.037024e-38 1.401298e-45
0.1694164 0.09061309 4.915053 1.079419e-33 2.194346e-33 2.037024e-38 1.401298e-45
0.2194432 0.07719107 5.149796 1.079419e-33 2.194346e-33 2.037024e-38 1.401298e-45
0.2949873 0.05635744 5.044426 1.079419e-33 2.194346e-33 2.037024e-38 1.401298e-45
0.2962368 0.05598518 7.016269 1.079419e-33 2.194346e-33 2.037024e-38 1.401298e-45
0.3944327 0.02903718 7.219042 1.079419e-33 2.194346e-33 2.037024e-38 1.401298e-45
-2.796193 1.008371 -0.9502125 1.079419e-33 2.194346e-33 2.037024e-38 1.401298e-45
-2.920099 1.046345 -0.9422096 1.079419e-33 2.194346e-33 2.037024e-38 1.401298e-45
-3.062702 1.090196 -0.9395876 1.079419e-33 2.194346e-33 2.037024e-38 1.401298e-45
-3.214165 1.136599 -0.9367365 1.079419e-33 2.194346e-33 2.037024e-38 1.401298e-45
-3.366596 1.18331 -0.9288883 1.079419e-33 2.194346e-33 2.037024e-38 1.401298e-45
-3.555488 1.240668 -0.9327544 1.079419e-33 2.194346e-33 2.037024e-38 1.401298e-45
-3.726566 1.293649 -0.922297 1.079419e-33 2.194346e-33 2.037024e-38 1.401298e-45
-3.943975 1.359798 -0.9252192 1.079419e-33 2.194346e-33 2.037024e-38 1.401298e-45
-4.171162 1.429729 -0.9244629 1.079419e-33 2.194346e-33 2.037024e-38 1.401298e-45
-4.355059 1.485262 -0.898433 1.079419e-33 2.194346e-33 2.037024e-38 1.401298e-45
-4.584152 1.556039 -0.8829885 1.079419e-33 2.194346e-33 2.037024e-38 1.401298e-45
-4.89601 1.650842 -0.8883432 1.079419e-33 2.194346e-33 2.037024e-38 1.401298e-45
-5.209737 1.7473 -0.8828544 1.079419e-33 2.194346e-33 2.037024e-38 1.401298e-45
-5.533335 1.845763 -0.8691935 1.079419e-33 2.194346e-33 2.037024e-38 1.401298e-45
-5.858799 1.945896 -0.8443896 1.079419e-33 2.194346e-33 2.037024e-38 1.401298e-45
-6.175437 2.042177 -0.8056332 1.079419e-33 2.194346e-33 2.037024e-38 1.401298e-45
-6.52939 2.150819 -0.7653538 1.079419e-33 2.194346e-33 2.037024e-38 1.401298e-45
-7.006398 2.29621 -0.7406455 1.079419e-33 2.194346e-33 2.037024e-38 1.401298e-45
-7.615173 2.483111 -0.7270836 1.079419e-33 2.194346e-33 2.037024e-38 1.401298e-45
-8.35679 2.709947 -0.7172749 1.079419e-33 2.194346e-33 2.037024e-38 1.401298e-45
-9.271564 2.989216 -0.7105857 1.079419e-33 2.194346e-33 2.037024e-38 1.401298e-45
-10.3948 3.333255 -0.7035017 1.079419e-33 2.194346e-33 2.037024e-38 1.401298e-45
-11.59762 3.701648 -0.66639 1.079419e-33 2.194346e-33 2.037024e-38 1.401298e-45
-13.37206 4.24378 -0.6537439 1.079419e-33 2.194346e-33 2.037024e-38 1.401298e-45
-12.44155 3.959196 3.752274 1.079419e-33 2.194346e-33 2.037024e-38 1.401298e-45
-12.09131 3.852081 4.404196 1.079419e-33 2.194346e-33 2.037024e-38 1.401298e-45
-10.90834 3.489951 4.307525 1.079419e-33 2.194346e-33 2.037024e-38 1.401298e-45
-10.81524 3.461988 4.503871 1.079419e-33 2.194346e-33 2.037024e-38 1.401298e-45
-11.73915 3.744778 5.034489 1.079419e-33 2.194346e-33 2.037024e-38 1.401298e-45
-5.322419 1.781402 3.036695 1.079419e-33 2.194346e-33 2.037024e-38 1.401298e-45
-11.19136 3.57685 5.328548 1.079419e-33 2.194346e-33 2.037024e-38 1.401298e-45
-4.247892 1.452728 2.85574 1.079419e-33 2.194346e-33 2.037024e-38 1.401298e-45
-4.073706 1.399448 2.883425 1.079419e-33 2.194346e-33 2.037024e-38 1.401298e-45
-8.661631 2.803278 4.967718 1.079419e-33 2.194346e-33 2.037024e-38 1.401298e-45
-5.296947 1.773502 3.635265 1.079419e-33 2.194346e-33 2.037024e-38 1.401298e-45
-5.216998 1.749015 3.724088 1.079419e-33 2.194346e-33 2.037024e-38 1.401298e-45
-5.1449 1.727118 3.815135 1.079419e-33 2.194346e-33 2.037024e-38 1.401298e-45
-5.157293 1.730503 3.948909 1.079419e-33 2.194346e-33 2.037024e-38 1.401298e-45
-5.200083 1.743731 4.102511 1.079419e-33 2.194346e-33 2.037024e-38 1.401298e-45
-5.130901 1.72316 4.196514 1.079419e-33 2.194346e-33 2.037024e-38 1.401298e-45
-5.093186 1.711407 4.308599 1.079419e-33 2.194346e-33 2.037024e-38 1.401298e-45
-4.921916 1.659448 4.33914 1.079419e-33 2.194346e-33 2.037024e-38 1.401298e-45
-4.579909 1.554354 4.254805 1.079419e-33 2.194346e-33 2.037024e-38 1.401298e-45
-4.613852 1.564926 4.40608 1.079419e-33 2.194346e-33 2.037024e-38 1.401298e-45
-4.476052 1.522361 4.443674 1.079419e-33 2.194346e-33 2.037024e-38 1.401298e-45
-4.292117 1.4661 4.443412 1.079419e-33 2.194346e-33 2.037024e-38 1.401298e-45
-4.265213 1.457909 4.553485 1.079419e-33 2.194346e-33 2.037024e-38 1.401298e-45
-4.243201 1.451323 4.669717 1.079419e-33 2.194346e-33 2.037024e-38 1.401298e-45
-4.265337 1.458252 4.822601 1.079419e-33 2.194346e-33 2.037024e-38 1.401298e-45
-3.938231 1.357736 4.691174 1.079419e-33 2.194346e-33 2.037024e-38 1.401298e-45
-3.846573 1.329856 4.74615 1.079419e-33 2.194346e-33 2.037024e-38 1.401298e-45
-3.463582 1.213182 4.539182 1.079419e-33 2.194346e-33 2.037024e-38 1.401298e-45
-3.525964 1.232132 4.723561 1.079419e-33 2.194346e-33 2.037024e-38 1.401298e-45
-3.504968 1.225468 4.836999 1.079419e-33 2.194346e-33 2.037024e-38 1.401298e-45
-4.418428 1.50501 5.880045 1.079419e-33 2.194346e-33 2.037024e-38 1.401298e-45
-4.009038 1.379714 5.632589 1.079419e-33 2.194346e-33 2.037024e-38 1.401298e-45
-5.47906 1.829284 7.361736 1.079419e-33 2.194346e-33 2.037024e-38 1.401298e-45
-5.387696 1.801206 7.95729 1.079419e-33 2.194346e-33 2.037024e-38 1.401298e-45
-5.158576 1.731685 7.926765 1.079419e-33 2.194346e-33 2.037024e-38 1.401298e-45
-5.017694 1.688605 7.998107 1.079419e-33 2.194346e-33 2.037024e-38 1.401298e-45
-3.101821 1.102287 5.73449 1.079419e-33 2.194346e-33 2.037024e-38 1.401298e-45
-3.011198 1.074176 5.783576 1.079419e-33 2.194346e-33 2.037024e-38 1.401298e-45
-2.936227 1.051132 5.855038 1.079419e-33 2.194346e-33 2.037024e-38 1.401298e-45
-1.849815 0.7187549 4.443474 1.079419e-33 2.194346e-33 2.037024e-38 1.401298e-45
-1.829838 0.7124933 4.543583 1.079419e-33 2.194346e-33 2.037024e-38 1.401298e-45
-1.743268 0.686213 4.543844 1.079419e-33 2.194346e-33 2.037024e-38 1.401298e-45
-1.668462 0.6633861 4.558926 1.079419e-33 2.194346e-33 2.037024e-38 1.401298e-45
-2.288285 0.853677 5.757451 1.079419e-33 2.194346e-33 2.037024e-38 1.401298e-45
-1.597099 0.6421059 4.722036 1.079419e-33 2.194346e-33 2.037024e-38 1.401298e-45
-1.657296 0.6598672 4.986058 1.079419e-33 2.194346e-33 2.037024e-38 1.401298e-45
-1.508125 0.6148285 4.86661 1.079419e-33 2.194346e-33 2.037024e-38 1.401298e-45
-0.8292482 0.4070124 3.669786 1.079419e-33 2.194346e-33 2.037024e-38 1.401298e-45
-0.7937214 0.3959094 3.711566 1.079419e-33 2.194346e-33 2.037024e-38 1.401298e-45
-1.077596 0.4831927 4.456735 1.079419e-33 2.194346e-33 2.037024e-38 1.401298e-45
-0.7382467 0.3788322 3.839022 1.079419e-33 2.194346e-33 2.037024e-38 1.401298e-45
-0.7622315 0.3860268 4.035358 1.079419e-33 2.194346e-33 2.037024e-38 1.401298e-45
-0.8544539 0.4146366 4.41819 1.079419e-33 2.194346e-33 2.037024e-38 1.401298e-45
-0.8783014 0.4218966 4.656373 1.079419e-33 2.194346e-33 2.037024e-38 1.401298e-45
-1.312604 0.5543624 6.067264 1.079419e-33 2.194346e-33 2.037024e-38 1.401298e-45
-0.4745055 0.298488 3.874999 1.079419e-33 2.194346e-33 2.037024e-38 1.401298e-45
-0.3892271 0.2724937 3.778535 1.079419e-33 2.194346e-33 2.037024e-38 1.401298e-45
-0.5873322 0.3325531 4.604917 1.079419e-33 2.194346e-33 2.037024e-38 1.401298e-45
-0.5681462 0.3264649 4.7681 1.079419e-33 2.194346e-33 2.037024e-38 1.401298e-45
-0.4487095 0.290595 4.574992 1.079419e-33 2.194346e-33 2.037024e-38 1.401298e-45
-0.3701977 0.2667876 4.514307 1.079419e-33 2.194346e-33 2.037024e-38 1.401298e-45
-0.315053 0.2491361 4.549079 1.079419e-33 2.194346e-33 2.037024e-38 1.401298e-45
-0.2191348 0.2202764 4.387711 1.079419e-33 2.194346e-33 2.037024e-38 1.401298e-45
-0.8048441 0.3993434 7.702588 1.079419e-33 2.194346e-33 2.037024e-38 1.401298e-45
-0.2547531 0.2315507 5.257447 1.079419e-33 2.194346e-33 2.037024e-38 1.401298e-45
-0.2032464 0.2149124 5.388912 1.079419e-33 2.194346e-33 2.037024e-38 1.401298e-45
-0.3555946 0.2622414 6.983486 1.079419e-33 2.194346e-33 2.037024e-38 1.401298e-45
0.007748205 0.151097 4.90626 1.079419e-33 2.194346e-33 2.037024e-38 1.401298e-45
0.08700814 0.1262621 4.785445 1.079419e-33 2.194346e-33 2.037024e-38 1.401298e-45
0.1538345 0.1065487 4.752564 1.079419e-33 2.194346e-33 2.037024e-38 1.401298e-45
0.1780299 0.09854466 5.266743 1.079419e-33 2.194346e-33 2.037024e-38 1.401298e-45
0.2600735 0.07339084 5.082349 1.079419e-33 2.194346e-33 2.037024e-38 1.401298e-45
0.3289405 0.05236385 5.086065 1.079419e-33 2.194346e-33 2.037024e-38 1.401298e-45
0.353964 0.04465937 6.798002 1.079419e-33 2.194346e-33 2.037024e-38 1.401298e-45
0.4569393 0.01378555 6.059778 1.079419e-33 2.194346e-33 2.037024e-38 1.401298e-45
-2.699518 1.082778 -0.9501743 1.079419e-33 2.194346e-33 2.037024e-38 1.401298e-45
-2.822257 1.123589 -0.9442209 1.079419e-33 2.194346e-33 2.037024e-38 1.401298e-45
-2.94591 1.165649 -0.9344186 1.079419e-33 2.194346e-33 2.037024e-38 1.401298e-45
-3.087259 1.21354 -0.9297009 1.079419e-33 2.194346e-33 2.037024e-38 1.401298e-45
-3.263019 1.272901 -0.9378518 1.079419e-33 2.194346e-33 2.037024e-38 1.401298e-45
-3.43185 1.330343 -0.9358385 1.079419e-33 2.194346e-33 2.037024e-38 1.401298e-45
-3.601645 1.38812 -0.9282289 1.079419e-33 2.194346e-33 2.037024e-38 1.401298e-45
-3.738034 1.433911 -0.8992081 1.079419e-33 2.194346e-33 2.037024e-38 1.401298e-45
-3.926471 1.497995 -0.8882902 1.079419e-33 2.194346e-33 2.037024e-38 1.401298e-45
-4.152283 1.57397 -0.8853374 1.079419e-33 2.194346e-33 2.037024e-38 1.401298e-45
-4.369224 1.646958 -0.8711784 1.079419e-33 2.194346e-33 2.037024e-38 1.401298e-45
-4.614582 1.730573 -0.8593706 1.079419e-33 2.194346e-33 2.037024e-38 1.401298e-45
-4.878649 1.819447 -0.8452037 1.079419e-33 2.194346e-33 2.037024e-38 1.401298e-45
-5.179996 1.921482 -0.8335584 1.079419e-33 2.194346e-33 2.037024e-38 1.401298e-45
-5.518672 2.035783 -0.8222878 1.079419e-33 2.194346e-33 2.037024e-38 1.401298e-45
-5.859211 2.151783 -0.799275 1.079419e-33 2.194346e-33 2.037024e-38 1.401298e-45
-6.173284 2.257123 -0.756776 1.079419e-33 2.194346e-33 2.037024e-38 1.401298e-45
-6.607131 2.403893 -0.7326024 1.079419e-33 2.194346e-33 2.037024e-38 1.401298e-45
-7.181394 2.598487 -0.7241386 1.079419e-33 2.194346e-33 2.037024e-38 1.401298e-45
-7.859711 2.828439 -0.7159756 1.079419e-33 2.194346e-33 2.037024e-38 1.401298e-45
-8.670603 3.102521 -0.7075692 1.079419e-33 2.194346e-33 2.037024e-38 1.401298e-45
-9.698503 3.449563 -0.7058277 1.079419e-33 2.194346e-33 2.037024e-38 1.401298e-45
-10.851 3.839199 -0.6846925 1.079419e-33 2.194346e-33 2.037024e-38 1.401298e-45
-12.4001 4.363662 -0.6729663 1.079419e-33 2.194346e-33 2.037024e-38 1.401298e-45
-12.31523 4.334785 3.874442 1.079419e-33 2.194346e-33 2.037024e-38 1.401298e-45
-12.23795 4.308394 4.103348 1.079419e-33 2.194346e-33 2.037024e-38 1.401298e-45
-10.7324 3.799854 3.955438 1.079419e-33 2.194346e-33 2.037024e-38 1.401298e-45
-10.80037 3.822913 4.195517 1.079419e-33 2.194346e-33 2.037024e-38 1.401298e-45
-11.29307 3.988576 4.568653 1.079419e-33 2.194346e-33 2.037024e-38 1.401298e-45
-11.29527 3.989463 4.805816 1.079419e-33 2.194346e-33 2.037024e-38 1.401298e-45
-5.266278 1.95059 2.97724 1.079419e-33 2.194346e-33 2.037024e-38 1.401298e-45
-10.54457 3.735772 5.013442 1.079419e-33 2.194346e-33 2.037024e-38 1.401298e-45
-5.340075 1.975288 3.243206 1.079419e-33 2.194346e-33 2.037024e-38 1.401298e-45
-5.248469 1.944927 3.328943 1.079419e-33 2.194346e-33 2.037024e-38 1.401298e-45
-5.165781 1.916162 3.415757 1.079419e-33 2.194346e-33 2.037024e-38 1.401298e-45
-5.116343 1.900096 3.515867 1.079419e-33 2.194346e-33 2.037024e-38 1.401298e-45
-5.09049 1.891023 3.627092 1.079419e-33 2.194346e-33 2.037024e-38 1.401298e-45
-5.123439 1.902009 3.767728 1.079419e-33 2.194346e-33 2.037024e-38 1.401298e-45
-5.145545 1.910213 3.90593 1.079419e-33 2.194346e-33 2.037024e-38 1.401298e-45
-5.839047 2.144614 4.408978 1.079419e-33 2.194346e-33 2.037024e-38 1.401298e-45
-4.920358 1.83315 4.041806 1.079419e-33 2.194346e-33 2.037024e-38 1.401298e-45
-5.0101 1.863654 4.223581 1.079419e-33 2.194346e-33 2.037024e-38 1.401298e-45
-4.955787 1.845332 4.324573 1.079419e-33 2.194346e-33 2.037024e-38 1.401298e-45
-5.021965 1.868167 4.501775 1.079419e-33 2.194346e-33 2.037024e-38 1.401298e-45
-4.810923 1.796266 4.502316 1.079419e-33 2.194346e-33 2.037024e-38 1.401298e-45
-4.656673 1.744402 4.53426 1.079419e-33 2.194346e-33 2.037024e-38 1.401298e-45
-4.43292 1.668559 4.511289 1.079419e-33 2.194346e-33 2.037024e-38 1.401298e-45
-4.19549 1.587957 4.469745 1.079419e-33 2.194346e-33 2.037024e-38 1.401298e-45
-3.991354 1.519181 4.444043 1.079419e-33 2.194346e-33 2.037024e-38 1.401298e-45
-4.508983 1.694619 4.983556 1.079419e-33 2.194346e-33 2.037024e-38 1.401298e-45
-4.031653 1.53315 4.736664 1.079419e-33 2.194346e-33 2.037024e-38 1.401298e-45
-4.064515 1.544327 4.901419 1.079419e-33 2.194346e-33 2.037024e-38 1.401298e-45
-3.658788 1.406644 4.682831 1.079419e-33 2.194346e-33 2.037024e-38 1.401298e-45
-3.489962 1.350196 4.660444 1.079419e-33 2.194346e-33 2.037024e-38 1.401298e-45
-3.527742 1.362766 4.827063 1.079419e-33 2.194346e-33 2.037024e-38 1.401298e-45
-3.414788 1.324131 4.853002 1.079419e-33 2.194346e-33 2.037024e-38 1.401298e-45
-4.127754 1.56558 5.716367 1.079419e-33 2.194346e-33 2.037024e-38 1.401298e-45
-4.108661 1.558753 5.864569 1.079419e-33 2.194346e-33 2.037024e-38 1.401298e-45
-3.969159 1.512169 5.883927 1.079419e-33 2.194346e-33 2.037024e-38 1.401298e-45
-3.467782 1.341946 5.490137 1.079419e-33 2.194346e-33 2.037024e-38 1.401298e-45
-3.380222 1.312437 5.547722 1.079419e-33 2.194346e-33 2.037024e-38 1.401298e-45
-5.155791 1.913125 7.867336 1.079419e-33 2.194346e-33 2.037024e-38 1.401298e-45
-4.932051 1.837702 7.832629 1.079419e-33 2.194346e-33 2.037024e-38 1.401298e-45
-3.30431 1.287108 5.957808 1.079419e-33 2.194346e-33 2.037024e-38 1.401298e-45
-3.075971 1.209797 5.830152 1.079419e-33 2.194346e-33 2.037024e-38 1.401298e-45
-2.926857 1.159144 5.79949 1.079419e-33 2.194346e-33 2.037024e-38 1.401298e-45
-2.863769 1.137575 5.88617 1.079419e-33 2.194346e-33 2.037024e-38 1.401298e-45
-1.847925 0.7945828 4.538544 1.079419e-33 2.194346e-33 2.037024e-38 1.401298e-45
-1.778164 0.7706012 4.564627 1.079419e-33 2.194346e-33 2.037024e-38 1.401298e-45
-1.744498 0.7596698 4.647961 1.079419e-33 2.194346e-33 2.037024e-38 1.401298e-45
-1.619095 0.7165514 4.578627 1.079419e-33 2.194346e-33 2.037024e-38 1.401298e-45
-2.218125 0.9194822 5.774197 1.079419e-33 2.194346e-33 2.037024e-38 1.401298e-45
-1.631831 0.7211062 4.896974 1.079419e-33 2.194346e-33 2.037024e-38 1.401298e-45
-0.8603578 0.4600327 3.588766 1.079419e-33 2.194346e-33 2.037024e-38 1.401298e-45
-1.497085 0.6761881 4.964239 1.079419e-33 2.194346e-33 2.037024e-38 1.401298e-45
-0.8206156 0.4468576 3.735251 1.079419e-33 2.194346e-33 2.037024e-38 1.401298e-45
-0.7841502 0.4347021 3.777177 1.079419e-33 2.194346e-33 2.037024e-38 1.401298e-45
-0.7213757 0.4132102 3.764132 1.079419e-33 2.194346e-33 2.037024e-38 1.401298e-45
-0.856429 0.4588506 4.215573 1.079419e-33 2.194346e-33 2.037024e-38 1.401298e-45
-0.8705908 0.4631414 4.405784 1.079419e-33 2.194346e-33 2.037024e-38 1.401298e-45
-1.459143 0.6630256 6.117877 1.079419e-33 2.194346e-33 2.037024e-38 1.401298e-45
-0.5628406 0.3593218 3.922005 1.079419e-33 2.194346e-33 2.037024e-38 1.401298e-45
-0.5049112 0.3403279 3.912972 1.079419e-33 2.194346e-33 2.037024e-38 1.401298e-45
-0.407186 0.3067402 3.77976 1.079419e-33 2.194346e-33 2.037024e-38 1.401298e-45
-0.6389247 0.3855099 4.699543 1.079419e-33 2.194346e-33 2.037024e-38 1.401298e-45
-0.5585711 0.3582836 4.653031 1.079419e-33 2.194346e-33 2.037024e-38 1.401298e-45
-0.4462416 0.3198146 4.47972 1.079419e-33 2.194346e-33 2.037024e-38 1.401298e-45
-0.3737189 0.2953368 4.438628 1.079419e-33 2.194346e-33 2.037024e-38 1.401298e-45
-0.3438063 0.2860445 4.570564 1.079419e-33 2.194346e-33 2.037024e-38 1.401298e-45
-0.2442514 0.2515198 4.400542 1.079419e-33 2.194346e-33 2.037024e-38 1.401298e-45
-0.4105784 0.3081253 5.518958 1.079419e-33 2.194346e-33 2.037024e-38 1.401298e-45
-0.3175892 0.2763604 5.436848 1.079419e-33 2.194346e-33 2.037024e-38 1.401298e-45
-0.2159331 0.2425522 5.283798 1.079419e-33 2.194346e-33 2.037024e-38 1.401298e-45
-0.09905274 0.2028438 4.990172 1.079419e-33 2.194346e-33 2.037024e-38 1.401298e-45
-0.01309357 0.1737377 4.852106 1.079419e-33 2.194346e-33 2.037024e-38 1.401298e-45
0.03639519 0.1570479 4.980081 1.079419e-33 2.194346e-33 2.037024e-38 1.401298e-45
0.126017 0.1271256 4.749318 1.079419e-33 2.194346e-33 2.037024e-38 1.401298e-45
0.1585772 0.1162117 5.114205 1.079419e-33 2.194346e-33 2.037024e-38 1.401298e-45
0.229146 0.09219464 5.080011 1.079419e-33 2.194346e-33 2.037024e-38 1.401298e-45
0.2977716 0.06872223 5.054412 1.079419e-33 2.194346e-33 2.037024e-38 1.401298e-45
0.3000193 0.06828952 7.026252 1.079419e-33 2.194346e-33 2.037024e-38 1.401298e-45
0.3991584 0.0343531 7.029016 1.079419e-33 2.194346e-33 2.037024e-38 1.401298e-45
-2.690198 1.185749 -0.9255745 1.079419e-33 2.194346e-33 2.037024e-38 1.401298e-45
-2.836187 1.240355 -0.9326736 1.079419e-33 2.194346e-33 2.037024e-38 1.401298e-45
-2.984204 1.294322 -0.9349225 1.079419e-33 2.194346e-33 2.037024e-38 1.401298e-45
-3.140959 1.352849 -0.9367418 1.079419e-33 2.194346e-33 2.037024e-38 1.401298e-45
-3.28202 1.405103 -0.9246317 1.079419e-33 2.194346e-33 2.037024e-38 1.401298e-45
-3.373021 1.438749 -0.8829769 1.079419e-33 2.194346e-33 2.037024e-38 1.401298e-45
-3.565992 1.511423 -0.8863718 1.079419e-33 2.194346e-33 2.037024e-38 1.401298e-45
-3.743328 1.576845 -0.8753881 1.079419e-33 2.194346e-33 2.037024e-38 1.401298e-45
-3.948099 1.652701 -0.8694556 1.079419e-33 2.194346e-33 2.037024e-38 1.401298e-45
-4.14494 1.726597 -0.8529623 1.079419e-33 2.194346e-33 2.037024e-38 1.401298e-45
-4.351621 1.803269 -0.8329408 1.079419e-33 2.194346e-33 2.037024e-38 1.401298e-45
-4.584784 1.889445 -0.8153272 1.079419e-33 2.194346e-33 2.037024e-38 1.401298e-45
-4.819831 1.977142 -0.7895669 1.079419e-33 2.194346e-33 2.037024e-38 1.401298e-45
-5.117685 2.087114 -0.7754312 1.079419e-33 2.194346e-33 2.037024e-38 1.401298e-45
-5.443865 2.208951 -0.7588022 1.079419e-33 2.194346e-33 2.037024e-38 1.401298e-45
-5.816118 2.347567 -0.7431171 1.079419e-33 2.194346e-33 2.037024e-38 1.401298e-45
-6.236424 2.503221 -0.7255728 1.079419e-33 2.194346e-33 2.037024e-38 1.401298e-45
-6.730216 2.686269 -0.710328 1.079419e-33 2.194346e-33 2.037024e-38 1.401298e-45
-7.371915 2.925698 -0.7091663 1.079419e-33 2.194346e-33 2.037024e-38 1.401298e-45
-8.136149 3.209635 -0.7081422 1.079419e-33 2.194346e-33 2.037024e-38 1.401298e-45
-9.068935 3.555825 -0.7088481 1.079419e-33 2.194346e-33 2.037024e-38 1.401298e-45
-10.05062 3.920341 -0.6828223 1.079419e-33 2.194346e-33 2.037024e-38 1.401298e-45
-11.35858 4.406404 -0.6662851 1.079419e-33 2.194346e-33 2.037024e-38 1.401298e-45
-12.43457 4.806068 4.311598 1.079419e-33 2.194346e-33 2.037024e-38 1.401298e-45
-10.54539 4.104021 4.046311 1.079419e-33 2.194346e-33 2.037024e-38 1.401298e-45
-10.71012 4.165468 4.315532 1.079419e-33 2.194346e-33 2.037024e-38 1.401298e-45
-11.06767 4.298195 4.654415 1.079419e-33 2.194346e-33 2.037024e-38 1.401298e-45
-5.141481 2.096543 2.896981 1.079419e-33 2.194346e-33 2.037024e-38 1.401298e-45
-5.092175 2.078394 2.995392 1.079419e-33 2.194346e-33 2.037024e-38 1.401298e-45
-5.058564 2.065477 3.099249 1.079419e-33 2.194346e-33 2.037024e-38 1.401298e-45
-5.049363 2.062544 3.212877 1.079419e-33 2.194346e-33 2.037024e-38 1.401298e-45
-5.055844 2.064951 3.334148 1.079419e-33 2.194346e-33 2.037024e-38 1.401298e-45
-5.060383 2.066284 3.456361 1.079419e-33 2.194346e-33 2.037024e-38 1.401298e-45
-5.079598 2.07296 3.587512 1.079419e-33 2.194346e-33 2.037024e-38 1.401298e-45
-5.113423 2.08601 3.728252 1.079419e-33 2.194346e-33 2.037024e-38 1.401298e-45
-6.116678 2.459163 4.366039 1.079419e-33 2.194346e-33 2.037024e-38 1.401298e-45
-6.027194 2.425867 4.470858 1.079419e-33 2.194346e-33 2.037024e-38 1.401298e-45
-5.885898 2.372905 4.545688 1.079419e-33 2.194346e-33 2.037024e-38 1.401298e-45
-4.921082 2.014577 4.139292 1.079419e-33 2.194346e-33 2.037024e-38 1.401298e-45
-4.812116 1.974157 4.205193 1.079419e-33 2.194346e-33 2.037024e-38 1.401298e-45
-4.710003 1.936263 4.273214 1.079419e-33 2.194346e-33 2.037024e-38 1.401298e-45
-4.75164 1.951706 4.432407 1.079419e-33 2.194346e-33 2.037024e-38 1.401298e-45
-4.591853 1.892259 4.459784 1.079419e-33 2.194346e-33 2.037024e-38 1.401298e-45
-4.464355 1.844647 4.504399 1.079419e-33 2.194346e-33 2.037024e-38 1.401298e-45
-4.143261 1.725962 4.403742 1.079419e-33 2.194346e-33 2.037024e-38 1.401298e-45
-4.422459 1.829003 4.745108 1.079419e-33 2.194346e-33 2.037024e-38 1.401298e-45
-4.406372 1.823297 4.871846 1.079419e-33 2.194346e-33 2.037024e-38 1.401298e-45
-4.037512 1.685798 4.71305 1.079419e-33 2.194346e-33 2.037024e-38 1.401298e-45
-3.990154 1.668669 4.809422 1.079419e-33 2.194346e-33 2.037024e-38 1.401298e-45
-3.797216 1.597272 4.777911 1.079419e-33 2.194346e-33 2.037024e-38 1.401298e-45
-4.248223 1.764044 5.324949 1.079419e-33 2.194346e-33 2.037024e-38 1.401298e-45
-3.867723 1.622601 5.121121 1.079419e-33 2.194346e-33 2.037024e-38 1.401298e-45
-4.083149 1.702537 5.478752 1.079419e-33 2.194346e-33 2.037024e-38 1.401298e-45
-4.022046 1.680668 5.577174 1.079419e-33 2.194346e-33 2.037024e-38 1.401298e-45
-4.006895 1.675 5.723741 1.079419e-33 2.194346e-33 2.037024e-38 1.401298e-45
-3.883339 1.629067 5.756983 1.079419e-33 2.194346e-33 2.037024e-38 1.401298e-45
-3.352675 1.431359 5.330125 1.079419e-33 2.194346e-33 2.037024e-38 1.401298e-45
-3.325814 1.42179 5.452782 1.079419e-33 2.194346e-33 2.037024e-38 1.401298e-45
-3.333126 1.424559 5.620698 1.079419e-33 2.194346e-33 2.037024e-38 1.401298e-45
-4.795874 1.967838 7.851602 1.079419e-33 2.194346e-33 2.037024e-38 1.401298e-45
-3.142216 1.35385 5.883128 1.079419e-33 2.194346e-33 2.037024e-38 1.401298e-45
-2.935833 1.276865 5.775716 1.079419e-33 2.194346e-33 2.037024e-38 1.401298e-45
-2.567577 1.139694 5.420966 1.079419e-33 2.194346e-33 2.037024e-38 1.401298e-45
-2.445148 1.094349 5.404125 1.079419e-33 2.194346e-33 2.037024e-38 1.401298e-45
-1.953191 0.9115928 4.80726 1.079419e-33 2.194346e-33 2.037024e-38 1.401298e-45
-1.756763 0.8390331 4.635511 1.079419e-33 2.194346e-33 2.037024e-38 1.401298e-45
-1.660804 0.8032761 4.61796 1.079419e-33 2.194346e-33 2.037024e-38 1.401298e-45
-1.582428 0.7737429 4.623538 1.079419e-33 2.194346e-33 2.037024e-38 1.401298e-45
-0.9185029 0.5266841 3.567515 1.079419e-33 2.194346e-33 2.037024e-38 1.401298e-45
-1.946769 0.9091046 5.612636 1.079419e-33 2.194346e-33 2.037024e-38 1.401298e-45
-2.242169 1.019593 6.386868 1.079419e-33 2.194346e-33 2.037024e-38 1.401298e-45
-0.8161958 0.4887947 3.69641 1.079419e-33 2.194346e-33 2.037024e-38 1.401298e-45
-0.7719766 0.4732748 3.720431 1.079419e-33 2.194346e-33 2.037024e-38 1.401298e-45
-0.7151946 0.4516018 3.716644 1.079419e-33 2.194346e-33 2.037024e-38 1.401298e-45
-1.331459 0.6811612 5.285769 1.079419e-33 2.194346e-33 2.037024e-38 1.401298e-45
-1.564234 0.7669035 6.062037 1.079419e-33 2.194346e-33 2.037024e-38 1.401298e-45
-0.6128343 0.4136219 3.863966 1.079419e-33 2.194346e-33 2.037024e-38 1.401298e-45
-0.565765 0.3957347 3.884182 1.079419e-33 2.194346e-33 2.037024e-38 1.401298e-45
-0.514766 0.3771031 3.894198 1.079419e-33 2.194346e-33 2.037024e-38 1.401298e-45
-0.4453381 0.3514894 3.846673 1.079419e-33 2.194346e-33 2.037024e-38 1.401298e-45
-0.7048399 0.4476609 4.840661 1.079419e-33 2.194346e-33 2.037024e-38 1.401298e-45
-0.5712417 0.3987303 4.623981 1.079419e-33 2.194346e-33 2.037024e-38 1.401298e-45
-0.5279359 0.3818845 4.700939 1.079419e-33 2.194346e-33 2.037024e-38 1.401298e-45
-0.387741 0.3299263 4.411177 1.079419e-33 2.194346e-33 2.037024e-38 1.401298e-45
-0.3482649 0.315656 4.49494 1.079419e-33 2.194346e-33 2.037024e-38 1.401298e-45
-0.4837538 0.3651221 5.365912 1.079419e-33 2.194346e-33 2.037024e-38 1.401298e-45
-0.2103628 0.2643297 4.416922 1.079419e-33 2.194346e-33 2.037024e-38 1.401298e-45
-0.3415314 0.3125612 5.409579 1.079419e-33 2.194346e-33 2.037024e-38 1.401298e-45
-0.2554761 0.281129 5.345918 1.079419e-33 2.194346e-33 2.037024e-38 1.401298e-45
-0.08974893 0.219816 4.757692 1.079419e-33 2.194346e-33 2.037024e-38 1.401298e-45
-0.0510499 0.2047943 4.926301 1.079419e-33 2.194346e-33 2.037024e-38 1.401298e-45
0.01936277 0.1784977 4.886414 1.079419e-33 2.194346e-33 2.037024e-38 1.401298e-45
0.09163963 0.1515399 4.815308 1.079419e-33 2.194346e-33 2.037024e-38 1.401298e-45
0.148675 0.1303445 4.881983 1.079419e-33 2.194346e-33 2.037024e-38 1.401298e-45
0.1907873 0.114878 5.187062 1.079419e-33 2.194346e-33 2.037024e-38 1.401298e-45
0.263103 0.0882306 5.122249 1.079419e-33 2.194346e-33 2.037024e-38 1.401298e-45
0.252367 0.09213342 7.024269 1.079419e-33 2.194346e-33 2.037024e-38 1.401298e-45
0.3591874 0.05240382 6.71799 1.079419e-33 2.194346e-33 2.037024e-38 1.401298e-45
0.4588049 0.01571485 5.979773 1.079419e-33 2.194346e-33 2.037024e-38 1.401298e-45
-2.62235 1.264932 -0.9452182 1.079419e-33 2.194346e-33 2.037024e-38 1.401298e-45
-2.726941 1.307126 -0.929733 1.079419e-33 2.194346e-33 2.037024e-38 1.401298e-45
-2.855011 1.359231 -0.9250047 1.079419e-33 2.194346e-33 2.037024e-38 1.401298e-45
-2.984992 1.412661 -0.9161248 1.079419e-33 2.194346e-33 2.037024e-38 1.401298e-45
-3.073914 1.44787 -0.8808677 1.079419e-33 2.194346e-33 2.037024e-38 1.401298e-45
-3.238159 1.514965 -0.8808607 1.079419e-33 2.194346e-33 2.037024e-38 1.401298e-45
-3.403429 1.581395 -0.8753077 1.079419e-33 2.194346e-33 2.037024e-38 1.401298e-45
-3.578428 1.652516 -0.8679236 1.079419e-33 2.194346e-33 2.037024e-38 1.401298e-45
-3.745562 1.720635 -0.8508282 1.079419e-33 2.194346e-33 2.037024e-38 1.401298e-45
-3.939133 1.799132 -0.8386871 1.079419e-33 2.194346e-33 2.037024e-38 1.401298e-45
-4.107252 1.866906 -0.8095537 1.079419e-33 2.194346e-33 2.037024e-38 1.401298e-45
-4.329206 1.956306 -0.7941709 1.079419e-33 2.194346e-33 2.037024e-38 1.401298e-45
-4.551051 2.047087 -0.7710472 1.079419e-33 2.194346e-33 2.037024e-38 1.401298e-45
-4.782727 2.140719 -0.7428971 1.079419e-33 2.194346e-33 2.037024e-38 1.401298e-45
-5.085842 2.263051 -0.7286377 1.079419e-33 2.194346e-33 2.037024e-38 1.401298e-45
-5.418278 2.397344 -0.7111828 1.079419e-33 2.194346e-33 2.037024e-38 1.401298e-45
-5.714435 2.517484 -0.6720276 1.079419e-33 2.194346e-33 2.037024e-38 1.401298e-45
-6.272813 2.744029 -0.6875656 1.079419e-33 2.194346e-33 2.037024e-38 1.401298e-45
-6.897699 2.996962 -0.696986 1.079419e-33 2.194346e-33 2.037024e-38 1.401298e-45
-7.52444 3.251149 -0.6834283 1.079419e-33 2.194346e-33 2.037024e-38 1.401298e-45
-8.372225 3.595001 -0.6884484 1.079419e-33 2.194346e-33 2.037024e-38 1.401298e-45
-9.221932 3.938525 -0.6620016 1.079419e-33 2.194346e-33 2.037024e-38 1.401298e-45
-10.47748 4.447522 -0.6652418 1.079419e-33 2.194346e-33 2.037024e-38 1.401298e-45
-5.08527 2.263107 2.280267 1.079419e-33 2.194346e-33 2.037024e-38 1.401298e-45
-5.063449 2.25397 2.385312 1.079419e-33 2.194346e-33 2.037024e-38 1.401298e-45
-5.058207 2.252064 2.494609 1.079419e-33 2.194346e-33 2.037024e-38 1.401298e-45
-5.033454 2.241719 2.599095 1.079419e-33 2.194346e-33 2.037024e-38 1.401298e-45
-5.015495 2.234902 2.705751 1.079419e-33 2.194346e-33 2.037024e-38 1.401298e-45
-4.9956 2.226957 2.812252 1.079419e-33 2.194346e-33 2.037024e-38 1.401298e-45
-4.983552 2.221637 2.921674 1.079419e-33 2.194346e-33 2.037024e-38 1.401298e-45
-4.986132 2.222543 3.037689 1.079419e-33 2.194346e-33 2.037024e-38 1.401298e-45
-5.004275 2.230778 3.161147 1.079419e-33 2.194346e-33 2.037024e-38 1.401298e-45
-5.020535 2.236963 3.285997 1.079419e-33 2.194346e-33 2.037024e-38 1.401298e-45
-11.12733 4.711062 6.067485 1.079419e-33 2.194346e-33 2.037024e-38 1.401298e-45
-11.09529 4.698066 6.309126 1.079419e-33 2.194346e-33 2.037024e-38 1.401298e-45
-10.99003 4.654974 6.518558 1.079419e-33 2.194346e-33 2.037024e-38 1.401298e-45
-8.30335 3.566853 5.428358 1.079419e-33 2.194346e-33 2.037024e-38 1.401298e-45
-8.305628 3.568127 5.632862 1.079419e-33 2.194346e-33 2.037024e-38 1.401298e-45
-5.982697 2.626379 4.563319 1.079419e-33 2.194346e-33 2.037024e-38 1.401298e-45
-4.655687 2.088802 3.957275 1.079419e-33 2.194346e-33 2.037024e-38 1.401298e-45
-4.680653 2.099285 4.097485 1.079419e-33 2.194346e-33 2.037024e-38 1.401298e-45
-6.714602 2.922489 5.676015 1.079419e-33 2.194346e-33 2.037024e-38 1.401298e-45
-4.562317 2.051612 4.412292 1.079419e-33 2.194346e-33 2.037024e-38 1.401298e-45
-4.319952 1.952939 4.376415 1.079419e-33 2.194346e-33 2.037024e-38 1.401298e-45
-4.24929 1.92451 4.455378 1.079419e-33 2.194346e-33 2.037024e-38 1.401298e-45
-4.336694 1.959689 4.653327 1.079419e-33 2.194346e-33 2.037024e-38 1.401298e-45
-4.254333 1.926236 4.726158 1.079419e-33 2.194346e-33 2.037024e-38 1.401298e-45
-4.096828 1.863092 4.736911 1.079419e-33 2.194346e-33 2.037024e-38 1.401298e-45
-3.926753 1.793325 4.730592 1.079419e-33 2.194346e-33 2.037024e-38 1.401298e-45
-3.908768 1.78619 4.851081 1.079419e-33 2.194346e-33 2.037024e-38 1.401298e-45
-4.073141 1.852566 5.13918 1.079419e-33 2.194346e-33 2.037024e-38 1.401298e-45
-3.795791 1.740006 5.027878 1.079419e-33 2.194346e-33 2.037024e-38 1.401298e-45
-4.101412 1.864666 5.469365 1.079419e-33 2.194346e-33 2.037024e-38 1.401298e-45
-5.940388 2.609221 7.478398 1.079419e-33 2.194346e-33 2.037024e-38 1.401298e-45
-3.921083 1.791315 5.605235 1.079419e-33 2.194346e-33 2.037024e-38 1.401298e-45
-3.917644 1.790044 5.765474 1.079419e-33 2.194346e-33 2.037024e-38 1.401298e-45
-3.363619 1.56571 5.315656 1.079419e-33 2.194346e-33 2.037024e-38 1.401298e-45
-3.255007 1.521434 5.343902 1.079419e-33 2.194346e-33 2.037024e-38 1.401298e-45
-3.326598 1.550776 5.584895 1.079419e-33 2.194346e-33 2.037024e-38 1.401298e-45
-3.3008 1.539717 5.716643 1.079419e-33 2.194346e-33 2.037024e-38 1.401298e-45
-3.307052 1.542923 5.894644 1.079419e-33 2.194346e-33 2.037024e-38 1.401298e-45
-2.883918 1.370717 5.507141 1.079419e-33 2.194346e-33 2.037024e-38 1.401298e-45
-2.650682 1.276577 5.349547 1.079419e-33 2.194346e-33 2.037024e-38 1.401298e-45
-2.574266 1.245389 5.400175 1.079419e-33 2.194346e-33 2.037024e-38 1.401298e-45
-2.453069 1.19617 5.384633 1.079419e-33 2.194346e-33 2.037024e-38 1.401298e-45
-2.376617 1.165787 5.431316 1.079419e-33 2.194346e-33 2.037024e-38 1.401298e-45
-1.879881 0.9642321 4.805111 1.079419e-33 2.194346e-33 2.037024e-38 1.401298e-45
-1.742243 0.9087307 4.723496 1.079419e-33 2.194346e-33 2.037024e-38 1.401298e-45
-1.651345 0.8716859 4.71425 1.079419e-33 2.194346e-33 2.037024e-38 1.401298e-45
-1.543946 0.8278176 4.668493 1.079419e-33 2.194346e-33 2.037024e-38 1.401298e-45
-1.933291 0.9862446 5.546371 1.079419e-33 2.194346e-33 2.037024e-38 1.401298e-45
-1.868598 0.9593738 5.609073 1.079419e-33 2.194346e-33 2.037024e-38 1.401298e-45
-2.990326 1.413787 8.08095 1.079419e-33 2.194346e-33 2.037024e-38 1.401298e-45
-1.540916 0.826975 5.32122 1.079419e-33 2.194346e-33 2.037024e-38 1.401298e-45
-1.572356 0.8399135 5.583701 1.079419e-33 2.194346e-33 2.037024e-38 1.401298e-45
-1.6358 0.8654253 5.939173 1.079419e-33 2.194346e-33 2.037024e-38 1.401298e-45
-1.547709 0.8300596 5.960299 1.079419e-33 2.194346e-33 2.037024e-38 1.401298e-45
-2.426939 1.185831 8.437447 1.079419e-33 2.194346e-33 2.037024e-38 1.401298e-45
-2.285118 1.129035 8.435768 1.079419e-33 2.194346e-33 2.037024e-38 1.401298e-45
-0.5138743 0.410832 3.847373 1.079419e-33 2.194346e-33 2.037024e-38 1.401298e-45
-0.4581865 0.3879367 3.837846 1.079419e-33 2.194346e-33 2.037024e-38 1.401298e-45
-0.7162174 0.4929827 4.810361 1.079419e-33 2.194346e-33 2.037024e-38 1.401298e-45
-0.5858501 0.439766 4.604425 1.079419e-33 2.194346e-33 2.037024e-38 1.401298e-45
-0.5251698 0.4155501 4.614757 1.079419e-33 2.194346e-33 2.037024e-38 1.401298e-45
-0.4123265 0.3695395 4.431602 1.079419e-33 2.194346e-33 2.037024e-38 1.401298e-45
-0.3690948 0.3521024 4.496574 1.079419e-33 2.194346e-33 2.037024e-38 1.401298e-45
-0.3007551 0.3242825 4.463883 1.079419e-33 2.194346e-33 2.037024e-38 1.401298e-45
-0.2632823 0.3090458 4.566129 1.079419e-33 2.194346e-33 2.037024e-38 1.401298e-45
-0.1804677 0.2763433 4.45279 1.079419e-33 2.194346e-33 2.037024e-38 1.401298e-45
-0.3121423 0.3295999 5.505577 1.079419e-33 2.194346e-33 2.037024e-38 1.401298e-45
-0.1716237 0.2721915 5.106546 1.079419e-33 2.194346e-33 2.037024e-38 1.401298e-45
-0.07065367 0.2308384 4.881584 1.079419e-33 2.194346e-33 2.037024e-38 1.401298e-45
-0.009912767 0.2065912 4.911541 1.079419e-33 2.194346e-33 2.037024e-38 1.401298e-45
0.06792994 0.1748578 4.791476 1.079419e-33 2.194346e-33 2.037024e-38 1.401298e-45
0.1324019 0.148794 4.769236 1.079419e-33 2.194346e-33 2.037024e-38 1.401298e-45
0.1676504 0.134736 5.094312 1.079419e-33 2.194346e-33 2.037024e-38 1.401298e-45
0.2360418 0.10733 5.07001 1.079419e-33 2.194346e-33 2.037024e-38 1.401298e-45
0.3014939 0.08002961 5.064445 1.079419e-33 2.194346e-33 2.037024e-38 1.401298e-45
0.2939479 0.08355156 7.346132 1.079419e-33 2.194346e-33 2.037024e-38 1.401298e-45
0.4022672 0.03921105 6.969084 1.079419e-33 2.194346e-33 2.037024e-38 1.401298e-45
-2.529117 1.332329 -0.9491183 1.079419e-33 2.194346e-33 2.037024e-38 1.401298e-45
-2.614875 1.370778 -0.9255548 1.079419e-33 2.194346e-33 2.037024e-38 1.401298e-45
-2.693842 1.405176 -0.8945243 1.079419e-33 2.194346e-33 2.037024e-38 1.401298e-45
-2.805061 1.453765 -0.879514 1.079419e-33 2.194346e-33 2.037024e-38 1.401298e-45
-2.940629 1.514374 -0.8742577 1.079419e-33 2.194346e-33 2.037024e-38 1.401298e-45
-3.102654 1.585198 -0.8772518 1.079419e-33 2.194346e-33 2.037024e-38 1.401298e-45
-3.256815 1.653021 -0.8705345 1.079419e-33 2.194346e-33 2.037024e-38 1.401298e-45
-3.41971 1.725454 -0.8623888 1.079419e-33 2.194346e-33 2.037024e-38 1.401298e-45
-3.5758 1.793935 -0.8447786 1.079419e-33 2.194346e-33 2.037024e-38 1.401298e-45
-3.732856 1.862742 -0.8217719 1.079419e-33 2.194346e-33 2.037024e-38 1.401298e-45
-3.889878 1.931815 -0.7933719 1.079419e-33 2.194346e-33 2.037024e-38 1.401298e-45
-4.098683 2.023356 -0.7794774 1.079419e-33 2.194346e-33 2.037024e-38 1.401298e-45
-4.291796 2.108614 -0.7518531 1.079419e-33 2.194346e-33 2.037024e-38 1.401298e-45
-4.520088 2.208781 -0.7293529 1.079419e-33 2.194346e-33 2.037024e-38 1.401298e-45
-4.757149 2.31275 -0.7015793 1.079419e-33 2.194346e-33 2.037024e-38 1.401298e-45
-5.047826 2.44165 -0.6813128 1.079419e-33 2.194346e-33 2.037024e-38 1.401298e-45
-5.419609 2.60495 -0.6729557 1.079419e-33 2.194346e-33 2.037024e-38 1.401298e-45
-5.703446 2.729675 -0.6274946 1.079419e-33 2.194346e-33 2.037024e-38 1.401298e-45
-6.345675 3.011678 -0.6583667 1.079419e-33 2.194346e-33 2.037024e-38 1.401298e-45
-7.088343 3.338971 -0.6871483 1.079419e-33 2.194346e-33 2.037024e-38 1.401298e-45
-7.735254 3.62374 -0.6680662 1.079419e-33 2.194346e-33 2.037024e-38 1.401298e-45
-8.627207 4.015586 -0.6692738 1.079419e-33 2.194346e-33 2.037024e-38 1.401298e-45
-9.76599 4.517313 -0.6768811 1.079419e-33 2.194346e-33 2.037024e-38 1.401298e-45
-4.963112 2.403533 2.105781 1.079419e-33 2.194346e-33 2.037024e-38 1.401298e-45
-4.935442 2.391881 2.20771 1.079419e-33 2.194346e-33 2.037024e-38 1.401298e-45
-4.906837 2.379143 2.309086 1.079419e-33 2.194346e-33 2.037024e-38 1.401298e-45
-4.929905 2.389236 2.423572 1.079419e-33 2.194346e-33 2.037024e-38 1.401298e-45
-4.932518 2.389886 2.534393 1.079419e-33 2.194346e-33 2.037024e-38 1.401298e-45
-4.942855 2.395176 2.648437 1.079419e-33 2.194346e-33 2.037024e-38 1.401298e-45
-4.941528 2.394647 2.760493 1.079419e-33 2.194346e-33 2.037024e-38 1.401298e-45
-4.956828 2.40046 2.879047 1.079419e-33 2.194346e-33 2.037024e-38 1.401298e-45
-5.011981 2.425565 3.014417 1.079419e-33 2.194346e-33 2.037024e-38 1.401298e-45
-11.88205 5.447966 5.789189 1.079419e-33 2.194346e-33 2.037024e-38 1.401298e-45
-11.34908 5.213621 5.838911 1.079419e-33 2.194346e-33 2.037024e-38 1.401298e-45
-11.54322 5.298537 6.181346 1.079419e-33 2.194346e-33 2.037024e-38 1.401298e-45
-11.67004 5.354425 6.505875 1.079419e-33 2.194346e-33 2.037024e-38 1.401298e-45
-9.934736 4.591337 5.955593 1.079419e-33 2.194346e-33 2.037024e-38 1.401298e-45
-10.10352 4.665711 6.278167 1.079419e-33 2.194346e-33 2.037024e-38 1.401298e-45
-10.14953 4.685932 6.548388 1.079419e-33 2.194346e-33 2.037024e-38 1.401298e-45
-9.887697 4.570195 6.65701 1.079419e-33 2.194346e-33 2.037024e-38 1.401298e-45
-7.22951 3.401043 5.395266 1.079419e-33 2.194346e-33 2.037024e-38 1.401298e-45
-4.544492 2.219195 3.991407 1.079419e-33 2.194346e-33 2.037024e-38 1.401298e-45
-4.384377 2.148662 4.018128 1.079419e-33 2.194346e-33 2.037024e-38 1.401298e-45
-4.500812 2.200702 4.217328 1.079419e-33 2.194346e-33 2.037024e-38 1.401298e-45
-4.307584 2.115852 4.218218 1.079419e-33 2.194346e-33 2.037024e-38 1.401298e-45
-4.456218 2.180436 4.449037 1.079419e-33 2.194346e-33 2.037024e-38 1.401298e-45
-4.370113 2.1427 4.520954 1.079419e-33 2.194346e-33 2.037024e-38 1.401298e-45
-4.320991 2.121531 4.618915 1.079419e-33 2.194346e-33 2.037024e-38 1.401298e-45
-4.299135 2.112151 4.739291 1.079419e-33 2.194346e-33 2.037024e-38 1.401298e-45
-3.834445 1.906842 4.50315 1.079419e-33 2.194346e-33 2.037024e-38 1.401298e-45
-4.002373 1.981599 4.773936 1.079419e-33 2.194346e-33 2.037024e-38 1.401298e-45
-4.343582 2.1311 5.207809 1.079419e-33 2.194346e-33 2.037024e-38 1.401298e-45
-4.281785 2.104156 5.305876 1.079419e-33 2.194346e-33 2.037024e-38 1.401298e-45
-4.017651 1.987371 5.214589 1.079419e-33 2.194346e-33 2.037024e-38 1.401298e-45
-3.743791 1.866899 5.101296 1.079419e-33 2.194346e-33 2.037024e-38 1.401298e-45
-3.603223 1.805543 5.10726 1.079419e-33 2.194346e-33 2.037024e-38 1.401298e-45
-5.609466 2.688294 7.332282 1.079419e-33 2.194346e-33 2.037024e-38 1.401298e-45
-5.232381 2.522223 7.153519 1.079419e-33 2.194346e-33 2.037024e-38 1.401298e-45
-5.108206 2.467534 7.233346 1.079419e-33 2.194346e-33 2.037024e-38 1.401298e-45
-3.375757 1.705054 5.460744 1.079419e-33 2.194346e-33 2.037024e-38 1.401298e-45
-3.297493 1.670496 5.526546 1.079419e-33 2.194346e-33 2.037024e-38 1.401298e-45
-2.957678 1.521807 5.268758 1.079419e-33 2.194346e-33 2.037024e-38 1.401298e-45
-2.78226 1.444458 5.197099 1.079419e-33 2.194346e-33 2.037024e-38 1.401298e-45
-2.703116 1.408893 5.243721 1.079419e-33 2.194346e-33 2.037024e-38 1.401298e-45
-2.634566 1.379664 5.304012 1.079419e-33 2.194346e-33 2.037024e-38 1.401298e-45
-2.570964 1.351071 5.371112 1.079419e-33 2.194346e-33 2.037024e-38 1.401298e-45
-2.511192 1.325055 5.445016 1.079419e-33 2.194346e-33 2.037024e-38 1.401298e-45
-2.43979 1.293473 5.501802 1.079419e-33 2.194346e-33 2.037024e-38 1.401298e-45
-2.984994 1.533369 6.537822 1.079419e-33 2.194346e-33 2.037024e-38 1.401298e-45
-1.693099 0.9647594 4.618904 1.079419e-33 2.194346e-33 2.037024e-38 1.401298e-45
-1.615013 0.9303252 4.626429 1.079419e-33 2.194346e-33 2.037024e-38 1.401298e-45
-1.59511 0.9224489 4.734327 1.079419e-33 2.194346e-33 2.037024e-38 1.401298e-45
-1.479202 0.8711433 4.670361 1.079419e-33 2.194346e-33 2.037024e-38 1.401298e-45
-1.871632 1.043263 5.57782 1.079419e-33 2.194346e-33 2.037024e-38 1.401298e-45
-1.841958 1.029998 5.710254 1.079419e-33 2.194346e-33 2.037024e-38 1.401298e-45
-2.049784 1.121412 6.348419 1.079419e-33 2.194346e-33 2.037024e-38 1.401298e-45
-1.644817 0.9442657 5.698147 1.079419e-33 2.194346e-33 2.037024e-38 1.401298e-45
-1.419404 0.8443866 5.395405 1.079419e-33 2.194346e-33 2.037024e-38 1.401298e-45
-1.569887 0.9105793 5.959067 1.079419e-33 2.194346e-33 2.037024e-38 1.401298e-45
-1.46454 0.8648313 5.93354 1.079419e-33 2.194346e-33 2.037024e-38 1.401298e-45
-1.160857 0.7306626 5.379094 1.079419e-33 2.194346e-33 2.037024e-38 1.401298e-45
-0.5206147 0.4494148 3.82839 1.079419e-33 2.194346e-33 2.037024e-38 1.401298e-45
-0.9978825 0.6593838 5.374094 1.079419e-33 2.194346e-33 2.037024e-38 1.401298e-45
-0.9246597 0.6267907 5.392572 1.079419e-33 2.194346e-33 2.037024e-38 1.401298e-45
-0.6301551 0.4977936 4.688843 1.079419e-33 2.194346e-33 2.037024e-38 1.401298e-45
-0.5464667 0.4604267 4.623988 1.079419e-33 2.194346e-33 2.037024e-38 1.401298e-45
-0.4367326 0.4121337 4.451678 1.079419e-33 2.194346e-33 2.037024e-38 1.401298e-45
-0.4061159 0.3988836 4.565383 1.079419e-33 2.194346e-33 2.037024e-38 1.401298e-45
-0.3167112 0.3594905 4.446526 1.079419e-33 2.194346e-33 2.037024e-38 1.401298e-45
-0.3187789 0.3603733 4.724137 1.079419e-33 2.194346e-33 2.037024e-38 1.401298e-45
-0.3822521 0.3880151 5.344432 1.079419e-33 2.194346e-33 2.037024e-38 1.401298e-45
-0.3378396 0.3688812 5.49779 1.079419e-33 2.194346e-33 2.037024e-38 1.401298e-45
-0.2196032 0.3167154 5.23771 1.079419e-33 2.194346e-33 2.037024e-38 1.401298e-45
-0.1015079 0.2649688 4.925346 1.079419e-33 2.194346e-33 2.037024e-38 1.401298e-45
-0.02570575 0.2309401 4.837347 1.079419e-33 2.194346e-33 2.037024e-38 1.401298e-45
0.04152929 0.2018142 4.797218 1.079419e-33 2.194346e-33 2.037024e-38 1.401298e-45
0.07928603 0.1847209 5.023907 1.079419e-33 2.194346e-33 2.037024e-38 1.401298e-45
0.1409499 0.1582648 5.071088 1.079419e-33 2.194346e-33 2.037024e-38 1.401298e-45
0.197926 0.1335018 5.187 1.079419e-33 2.194346e-33 2.037024e-38 1.401298e-45
0.2698152 0.1013836 5.092322 1.079419e-33 2.194346e-33 2.037024e-38 1.401298e-45
0.2591394 0.1062834 6.994293 1.079419e-33 2.194346e-33 2.037024e-38 1.401298e-45
0.3634146 0.05970937 6.648118 1.079419e-33 2.194346e-33 2.037024e-38 1.401298e-45
0.4597986 0.01768138 5.93982 1.079419e-33 2.194346e-33 2.037024e-38 1.401298e-45
-2.487555 1.421025 -0.9101964 1.079419e-33 2.194346e-33 2.037024e-38 1.401298e-45
-2.573189 1.461497 -0.8861327 1.079419e-33 2.194346e-33 2.037024e-38 1.401298e-45
-2.705622 1.524595 -0.8875266 1.079419e-33 2.194346e-33 2.037024e-38 1.401298e-45
-2.823421 1.580468 -0.8752379 1.079419e-33 2.194346e-33 2.037024e-38 1.401298e-45
-2.966564 1.648451 -0.8721008 1.079419e-33 2.194346e-33 2.037024e-38 1.401298e-45
-3.101907 1.71241 -0.8597022 1.079419e-33 2.194346e-33 2.037024e-38 1.401298e-45
-3.245988 1.780936 -0.846774 1.079419e-33 2.194346e-33 2.037024e-38 1.401298e-45
-3.407629 1.857405 -0.8366324 1.079419e-33 2.194346e-33 2.037024e-38 1.401298e-45
-3.536052 1.918852 -0.8058299 1.079419e-33 2.194346e-33 2.037024e-38 1.401298e-45
-3.699624 1.995974 -0.7848953 1.079419e-33 2.194346e-33 2.037024e-38 1.401298e-45
-3.862102 2.074313 -0.7583204 1.079419e-33 2.194346e-33 2.037024e-38 1.401298e-45
-4.034363 2.156386 -0.7290658 1.079419e-33 2.194346e-33 2.037024e-38 1.401298e-45
-4.284616 2.27519 -0.7215667 1.079419e-33 2.194346e-33 2.037024e-38 1.401298e-45
-4.500712 2.377923 -0.6931608 1.079419e-33 2.194346e-33 2.037024e-38 1.401298e-45
-4.795768 2.517684 -0.6817133 1.079419e-33 2.194346e-33 2.037024e-38 1.401298e-45
-5.100513 2.662456 -0.6619425 1.079419e-33 2.194346e-33 2.037024e-38 1.401298e-45
-5.423699 2.816682 -0.6358162 1.079419e-33 2.194346e-33 2.037024e-38 1.401298e-45
-5.774197 2.982856 -0.6043033 1.079419e-33 2.194346e-33 2.037024e-38 1.401298e-45
-6.523221 3.338613 -0.6533731 1.079419e-33 2.194346e-33 2.037024e-38 1.401298e-45
-7.311075 3.713804 -0.6815352 1.079419e-33 2.194346e-33 2.037024e-38 1.401298e-45
-8.038476 4.059352 -0.6675575 1.079419e-33 2.194346e-33 2.037024e-38 1.401298e-45
-9.044407 4.538039 -0.674548 1.079419e-33 2.194346e-33 2.037024e-38 1.401298e-45
-4.879147 2.557873 1.942858 1.079419e-33 2.194346e-33 2.037024e-38 1.401298e-45
-4.819486 2.528908 2.038034 1.079419e-33 2.194346e-33 2.037024e-38 1.401298e-45
-4.792881 2.516257 2.138718 1.079419e-33 2.194346e-33 2.037024e-38 1.401298e-45
-4.810046 2.524788 2.24914 1.079419e-33 2.194346e-33 2.037024e-38 1.401298e-45
-4.841847 2.539491 2.365054 1.079419e-33 2.194346e-33 2.037024e-38 1.401298e-45
-4.881427 2.557876 2.485041 1.079419e-33 2.194346e-33 2.037024e-38 1.401298e-45
-4.900489 2.56783 2.601611 1.079419e-33 2.194346e-33 2.037024e-38 1.401298e-45
-12.78315 6.314478 5.216248 1.079419e-33 2.194346e-33 2.037024e-38 1.401298e-45
-12.30852 6.089088 5.334872 1.079419e-33 2.194346e-33 2.037024e-38 1.401298e-45
